//X Y Z UserData ScanAngleRank NumberOfReturns ReturnNumber GpsTime Intensity Classification
100
23.01683235 -725.23803711 50.00980759 7.0
22.80573654 -725.11383057 50.15065765 13.0
23.46154785 -725.63763428 50.40163803 19.0
23.46336555 -725.59619141 50.4495163 17.0
23.50852966 -725.70568848 50.74689865 16.0
22.77479172 -725.10620117 50.60545731 15.0
23.46505356 -725.44775391 50.61925888 5.0
23.51364899 -725.66381836 50.79466629 16.0
23.53181267 -725.67785645 51.20536423 19.0
23.52471924 -725.63104248 51.25969315 17.0
22.61273956 -724.77142334 50.98020935 16.0
22.80544281 -725.10565186 51.49970627 19.0
22.70900536 -724.96228027 51.66746902 18.0
22.48845863 -724.17590332 51.16362381 18.0
22.45184326 -724.14190674 51.19923782 13.0
22.22157097 -724.53369141 51.71686935 19.0
22.41353607 -724.10717773 51.23551559 10.0
22.39546776 -724.07470703 51.2690506 10.0
22.36676216 -724.04217529 51.30274963 7.0
22.35194206 -724.01177979 51.33394623 7.0
22.34388161 -723.98455811 51.36158371 5.0
22.53600502 -724.47790527 51.74757385 19.0
22.27098083 -723.93615723 51.41235352 5.0
22.55723953 -724.43005371 51.79549026 19.0
22.58098793 -724.41082764 51.81322861 19.0
22.98938751 -725.40606689 52.97088242 15.0
22.42586899 -724.16046143 52.08471298 19.0
22.97183418 -725.3760376 53.00908279 19.0
22.4121933 -724.1307373 52.11621857 17.0
22.97508049 -725.35107422 53.03604126 18.0
22.39762115 -724.09570313 52.15313339 18.0
22.85437393 -725.08001709 52.89437103 9.0
22.95781708 -725.31768799 53.0778923 11.0
22.17393303 -723.78405762 52.02479172 17.0
22.37333107 -724.06280518 52.18876648 17.0
22.93268776 -725.28741455 53.11818695 18.0
22.14342117 -723.75006104 52.06042862 17.0
22.35013199 -724.03161621 52.22244644 17.0
22.9300499 -725.26263428 53.1463089 18.0
22.13027573 -723.71594238 52.09500122 17.0
22.33337593 -723.99707031 52.25885773 17.0
22.96594048 -725.2401123 53.16172791 7.0
22.10369873 -723.67938232 52.13282394 15.0
22.3068409 -723.96130371 52.29740143 16.0
22.79331779 -724.96032715 53.03855133 14.0
22.87086105 -725.19470215 53.2372551 10.0
22.07458305 -723.64355469 52.17004013 12.0
22.29405594 -723.93078613 52.32917786 15.0
22.72211075 -724.91918945 53.09954071 5.0
22.83751869 -725.16210938 53.28209686 11.0
22.05560684 -723.60876465 52.20539474 15.0
22.26967239 -723.89520264 52.36716461 15.0
22.95996094 -725.15753174 53.25440216 5.0
22.03137398 -723.57226563 52.24278641 15.0
22.2436657 -723.85894775 52.40592194 15.0
22.66803932 -724.85113525 53.18550873 15.0
22.92953491 -725.12371826 53.29969406 9.0
22.01629257 -723.54174805 52.27357101 7.0
22.22319603 -723.82745361 52.43928146 15.0
22.47932625 -724.56219482 53.05779266 15.0
22.63405228 -724.81866455 53.22835922 9.0
23.75043678 -726.09008789 53.8315239 3.0
22.00501823 -723.50878906 52.30641174 7.0
22.20653915 -723.79345703 52.47467804 13.0
23.79557228 -726.06915283 53.83753586 5.0
21.95967102 -723.46520996 52.35202026 7.0
22.18645096 -723.75830078 52.51153183 13.0
22.67174149 -724.76928711 53.27241135 6.0
22.94559097 -725.26434326 53.61968994 18.0
23.79061317 -726.04199219 53.87190247 6.0
21.95942879 -723.4387207 52.37756729 5.0
22.15924644 -723.7243042 52.54787827 11.0
22.64530373 -724.73797607 53.31206894 8.0
22.92488861 -725.2354126 53.65817642 19.0
23.80461121 -726.02026367 53.89178085 3.0
21.91903305 -723.39440918 52.42337036 5.0
22.15660286 -723.69213867 52.57980347 11.0
22.92308044 -725.20483398 53.69272995 19.0
23.86457825 -725.99987793 53.89079285 4.0
21.90303802 -723.35919189 52.45843887 5.0
22.19434547 -723.67358398 52.5939827 10.0
22.7149334 -724.91424561 53.5861702 14.0
22.88188171 -725.16833496 53.74581909 15.0
23.8857193 -725.97601318 53.91011429 5.0
21.89422035 -723.32965088 52.48744965 5.0
22.18008232 -723.64300537 52.62540817 13.0
22.71566391 -724.88861084 53.61371994 14.0
22.87218666 -725.14099121 53.77906418 19.0
23.0185833 -725.38824463 53.94617462 15.0
23.92220306 -725.95739746 53.91675949 5.0
21.86698341 -723.28869629 52.52872849 5.0
22.163517 -723.60632324 52.66302109 14.0
22.49096489 -724.58569336 53.51045609 17.0
22.69666672 -724.85357666 53.65680695 12.0
22.87611771 -725.11108398 53.81097031 15.0
23.95812035 -725.93408203 53.92916107 6.0
21.84433556 -723.25079346 52.56668472 2.0
22.16221428 -723.57580566 52.69284439 9.0
22.64353371 -724.81274414 53.71538544 14.0
22.84776497 -725.07641602 53.85795212 19.0
23.98112488 -725.9105835 53.94714355 7.0
21.89507866 -723.23638916 52.57632065 5.0
22.14500427 -723.54034424 52.72919083 9.0
22.59944344 -724.77349854 53.76971436 18.0
22.99617004 -725.29595947 54.05794907 12.0
24.01445198 -725.88861084 53.95898056 7.0
21.88953972 -723.20562744 52.60598755 5.0
22.08424759 -723.49304199 52.7817421 10.0
22.61230469 -724.74816895 53.79344559 19.0
22.96227646 -725.26239014 54.10738373 12.0
24.04684448 -725.86810303 53.96940231 7.0
21.87343979 -723.17120361 52.6398468 5.0
22.05397987 -723.45483398 52.82204819 9.0
22.5868187 -724.71429443 53.83677673 18.0
22.97006798 -725.23620605 54.13402176 18.0
24.08608246 -725.84863281 53.97563553 6.0
21.86461067 -723.13903809 52.6709404 5.0
22.02212715 -723.41589355 52.86317444 9.0
24.11680984 -725.82800293 53.98680878 4.0
21.87723923 -723.11383057 52.69360352 5.0
21.98160553 -723.3739624 52.90808105 10.0
22.51725388 -724.64172363 53.93357849 18.0
22.72755051 -724.91082764 54.07674789 13.0
22.92047501 -725.17138672 54.22370911 16.0
24.14926338 -725.80773926 53.99683762 6.0
21.43674469 -722.9352417 52.89850616 2.0
21.96713066 -723.3381958 52.94407272 10.0
22.53518677 -724.61529541 53.95689011 19.0
22.73331642 -724.88189697 54.10652161 15.0
22.90218925 -725.13812256 54.26714706 11.0
23.04049873 -725.38549805 54.44157028 13.0
21.94221497 -723.29888916 52.98456573 10.0
22.49588013 -724.57562256 54.01002502 14.0
22.89269066 -725.10638428 54.30581284 11.0
23.02610016 -725.35333252 54.48376083 18.0
21.90408707 -723.25695801 53.02902222 11.0
22.87542343 -725.07476807 54.34702301 12.0
21.29126167 -722.78778076 53.04887772 2.0
21.8947525 -723.22033691 53.0650177 10.0
22.61007309 -724.76409912 54.27303696 15.0
23.02169037 -725.29290771 54.55421829 18.0
21.30867958 -722.76257324 53.07084274 2.0
21.86937332 -723.18200684 53.10438538 10.0
22.07634163 -723.47363281 53.2749176 19.0
22.62577057 -724.73846436 54.29589844 12.0
22.9812355 -725.25720215 54.6102562 16.0
21.34313965 -722.74121094 53.08761215 7.0
21.65001106 -723.07775879 53.2290535 1.0
22.61688423 -724.70556641 54.33430862 12.0
22.97436905 -725.22570801 54.64859772 16.0
21.32549477 -722.70367432 53.12390137 7.0
21.6164875 -723.03588867 53.27267075 2.0
22.52300262 -724.65515137 54.41808319 15.0
22.7892704 -724.93731689 54.52928162 19.0
22.9563942 -725.19378662 54.69167709 7.0
21.31616592 -722.66693115 53.15868759 7.0
21.44395065 -722.94537354 53.37867355 4.0
22.54027176 -724.62768555 54.44235611 11.0
22.74000931 -724.8961792 54.59190369 9.0
21.19942284 -722.5960083 53.23458481 2.0
21.40816689 -722.90374756 53.42210388 4.0
22.54682541 -724.60137939 54.4686203 13.0
22.74149132 -724.86901855 54.62127304 12.0
21.35850906 -722.85131836 53.47741699 4.0
22.49882317 -724.55670166 54.53166962 13.0
22.71423531 -724.83013916 54.6735878 13.0
21.37498665 -722.82495117 53.500103 5.0
22.65443611 -724.78759766 54.74120712 13.0
21.20305252 -722.49481201 53.32704926 2.0
21.39619064 -722.79815674 53.52253342 9.0
22.63333893 -724.75128174 54.788414 15.0
21.02763939 -722.39868164 53.43116379 2.0
21.36928368 -722.7567749 53.56447983 11.0
21.53263092 -723.04553223 53.76824188 11.0
22.63663483 -724.7220459 54.81928635 12.0
21.05219269 -722.37060547 53.45439911 2.0
21.36579132 -722.71923828 53.59986877 13.0
21.48069191 -722.99224854 53.826931 7.0
21.04543304 -722.3371582 53.48539734 2.0
21.33983994 -722.6796875 53.63977814 14.0
21.45150757 -722.95220947 53.86944199 10.0
21.07476807 -722.31488037 53.50276184 5.0
21.25453949 -722.61694336 53.70858002 5.0
21.43754768 -722.91503906 53.90685272 10.0
20.9451046 -722.22912598 53.59280777 8.0
21.16162872 -722.54681396 53.78510666 7.0
21.38298225 -722.85980225 53.96756744 9.0
21.01810837 -722.22290039 53.59129333 11.0
21.16185951 -722.51361084 53.81571579 8.0
21.39014244 -722.8293457 53.99521637 10.0
21.01089668 -722.18444824 53.62656784 11.0
21.18071365 -722.48486328 53.83973694 6.0
21.35558128 -722.78234863 54.0448761 10.0
21.01768303 -722.15112305 53.65575027 11.0
21.08930397 -722.41601563 53.91464615 7.0
21.05048752 -722.12768555 53.67341995 11.0
21.08268929 -722.37762451 53.95068359 5.0
21.50500488 -722.996521 54.32479095 12.0
21.08605385 -722.10955811 53.68597412 11.0
21.07718849 -722.34362793 53.98239136 6.0
21.46546745 -722.9520874 54.37480164 13.0
21.09657478 -722.07751465 53.71340942 11.0
21.04686546 -722.29608154 54.02970123 7.0
21.26533318 -722.61242676 54.21829605 10.0
21.45085907 -722.91156006 54.41631317 11.0
21.10549736 -722.0447998 53.74156189 8.0
21.00650787 -722.24450684 54.0819397 11.0
21.1926651 -722.550354 54.28773117 10.0
21.40920448 -722.8616333 54.47186661 9.0
21.12483978 -722.01605225 53.76501846 8.0
21.06056023 -722.22802734 54.08972549 14.0
21.19375992 -722.51428223 54.32107925 10.0
21.40695 -722.82476807 54.50734711 10.0
21.12760353 -721.98284912 53.79406738 8.0
21.03129959 -722.18231201 54.13499451 13.0
21.16987038 -722.47119141 54.36490631 10.0
21.36452866 -722.77606201 54.5617218 10.0
21.09628487 -721.93591309 53.83871841 5.0
21.04833794 -722.15393066 54.15830994 15.0
21.11386871 -722.4161377 54.42494583 10.0
21.05665207 -721.88537598 53.88736343 8.0
21.08080101 -722.13140869 54.17419434 19.0
21.09555054 -722.37445068 54.4663887 8.0
21.04200935 -721.840271 53.92854691 5.0
21.11589622 -722.10565186 54.19264221 19.0
21.07328224 -722.32672119 54.51402283 11.0
21.01097679 -721.79040527 53.97554016 5.0
21.04994583 -722.28045654 54.56035614 11.0
21.24879456 -722.59033203 54.75955582 12.0
20.97679901 -721.73895264 54.02420044 5.0
21.13618279 -722.03894043 54.24961472 16.0
21.05051231 -722.24291992 54.59469223 11.0
21.2208271 -722.54290771 54.80955887 12.0
22.86971664 -725.10742188 56.45869827 1.0
23.42323875 -725.44036865 56.33758545 6.0
20.941576 -721.68890381 54.07162476 5.0
21.15366936 -722.01049805 54.27254486 16.0
22.96097565 -725.09326172 56.42865753 2.0
20.92185211 -721.64501953 54.11196136 5.0
21.12053299 -721.96191406 54.32037354 15.0
22.57865715 -724.51373291 56.14401627 11.0
20.88879395 -721.59527588 54.158741 5.0
21.07920074 -721.90979004 54.37246323 15.0
20.8606987 -721.54510498 54.20532608 5.0
21.05970573 -721.86383057 54.41593933 13.0
22.75988007 -724.71966553 56.39153671 1.0
22.88825607 -724.9800415 56.59918213 19.0
20.84500122 -721.5020752 54.2442131 5.0
21.03235817 -721.81671143 54.46149445 14.0
20.76853943 -721.4307251 54.3143425 8.0
21.00492287 -721.76696777 54.50928879 14.0
22.5737114 -724.60906982 56.6059227 9.0
20.68606949 -721.35858154 54.38579178 8.0
20.97637367 -721.71868896 54.55582428 13.0
23.39278984 -725.44384766 56.93247223 6.0
20.64568901 -721.30157471 54.43929672 8.0
20.94609642 -721.66717529 54.60545349 13.0
22.96404076 -725.09552002 57.00933075 18.0
22.96703529 -725.33514404 57.32290268 2.0
20.61566734 -721.24865723 54.48801422 8.0
20.91943169 -721.61682129 54.65345764 12.0
22.63151741 -724.753479 56.99665833 1.0
22.95324516 -725.29760742 57.37768173 2.0
20.61796951 -721.21185303 54.51911545 8.0
20.88494873 -721.56512451 54.7036171 12.0
22.64369202 -724.72216797 57.02695084 3.0
22.9535141 -725.2644043 57.41852951 2.0
20.63827896 -721.17803955 54.5454483 8.0
20.87187767 -721.51751709 54.74709702 13.0
22.93251228 -725.22302246 57.48233795 1.0
20.59249496 -721.11981201 54.60034561 5.0
20.81795311 -721.45697021 54.80770493 14.0
22.50372314 -724.61773682 57.22089386 5.0
22.89517403 -725.18243408 57.55489731 2.0
20.55366707 -721.06420898 54.65205765 5.0
20.71454811 -721.37487793 54.89429092 17.0
22.55532837 -724.5947876 57.22097778 4.0
22.7220974 -724.87194824 57.41253281 2.0
22.87788773 -725.14532471 57.61107635 4.0
20.52466393 -721.0078125 54.70319748 5.0
20.68416214 -721.31866455 54.94755936 18.0
21.87216568 -722.95294189 55.84884262 4.0
22.69990921 -724.82849121 57.47693253 2.0
20.48992348 -720.95581055 54.75127029 5.0
20.64803314 -721.26678467 54.99778366 18.0
21.4328804 -722.7668457 56.16354752 12.0
22.64142418 -724.78338623 57.56352234 3.0
20.45155144 -720.89447021 54.80756378 5.0
20.61162949 -721.20715332 55.0546875 17.0
22.64430428 -724.74468994 57.60813904 5.0
20.42378235 -720.84240723 54.85462189 5.0
20.57917786 -721.15380859 55.10554504 17.0
20.34972191 -720.76391602 54.92954636 5.0
20.5450573 -721.09436035 55.16176224 17.0
20.81157494 -722.42315674 56.68751907 3.0
20.27667999 -720.69525146 54.99600601 8.0
20.510149 -721.04412842 55.21012497 16.0
20.78245735 -722.37780762 56.74064636 1.0
20.2414608 -720.63604736 55.04976654 8.0
20.47511101 -720.98602295 55.26518631 11.0
21.40242004 -722.55883789 56.37656021 1.0
20.19833374 -720.57275391 55.10784149 8.0
20.43710899 -720.9262085 55.32209778 10.0
21.09107018 -722.16296387 56.28420258 17.0
21.42554855 -722.76495361 56.73434067 2.0
20.16547775 -720.51641846 55.15876007 12.0
20.40605545 -720.87164307 55.37335587 13.0
21.03035927 -722.34265137 56.69989014 3.0
20.11964226 -720.44842529 55.22091675 12.0
20.36696625 -720.8079834 55.43354797 15.0
21.00020981 -722.28656006 56.76361465 4.0
20.08568954 -720.38818359 55.27503967 12.0
20.33643913 -720.75030518 55.4871788 13.0
21.03236961 -722.2557373 56.78369141 6.0
20.04067612 -720.3248291 55.33304596 12.0
20.29650307 -720.69055176 55.54401398 15.0
21.4335041 -722.84527588 57.23487091 3.0
19.9992733 -720.26544189 55.38725662 12.0
20.25041008 -720.63012695 55.60229874 15.0
21.29389381 -722.51660156 57.02635956 9.0
21.41104507 -722.800354 57.28911209 3.0
19.97110367 -720.20410156 55.44124603 12.0
20.21106148 -720.5645752 55.66378021 15.0
23.78139114 -726.32672119 59.48168564 17.0
21.30277634 -722.47473145 57.06493378 12.0
21.42495346 -722.76031494 57.32486725 3.0
19.94002151 -720.14630127 55.49264145 12.0
20.18016243 -720.5078125 55.71641541 13.0
20.54456711 -720.91931152 55.85925293 15.0
21.11740685 -722.36639404 57.23518753 2.0
19.89141273 -720.07684326 55.55581665 12.0
20.20767212 -720.47564697 55.73891449 15.0
20.43837357 -720.82653809 55.95924377 16.0
21.02376556 -722.28808594 57.34443665 4.0
19.85288048 -720.01190186 55.61390305 12.0
20.1756649 -720.4151001 55.79473114 16.0
21.0368309 -722.24890137 57.3787117 5.0
19.80330086 -719.94641113 55.67377472 12.0
20.17606354 -720.375 55.82806015 15.0
23.54515076 -725.89782715 59.55685425 19.0
21.26188087 -722.53790283 57.61193466 5.0
19.77671623 -719.88653564 55.72594833 12.0
20.19436836 -720.3380127 55.85582352 5.0
20.31832123 -720.64080811 56.14139557 5.0
19.80027199 -719.85137939 55.7510643 12.0
19.78213501 -719.79785156 55.79668808 15.0
23.33254433 -725.49499512 59.55438995 16.0
19.764431 -719.7387085 55.84672928 12.0
22.90795898 -724.86029053 59.27959442 9.0
19.57093048 -719.59503174 55.98937988 12.0
19.58259583 -719.55541992 56.01942062 12.0
19.50521851 -719.76898193 56.44153595 4.0
19.80310059 -720.1673584 56.64412689 12.0
20.3404541 -720.66906738 56.6848526 19.0
23.32950211 -724.59960938 58.64536285 12.0
19.57050896 -719.50335693 56.06269073 12.0
19.47958946 -719.70983887 56.49445343 6.0
19.53814316 -719.43762207 56.11972809 15.0
22.67932701 -724.65423584 59.70570374 13.0
19.51149178 -719.6763916 56.51641846 19.0
19.25564766 -719.80639648 57.05691147 1.0
22.75818253 -725.19995117 60.42491913 2.0
19.91404343 -720.37695313 57.0345726 11.0
23.41473389 -725.58135986 60.12302017 6.0
23.05609131 -724.22106934 58.62962341 10.0
23.28759956 -724.50830078 58.78656769 12.0
19.48884583 -719.35974121 56.18883514 12.0
19.55002213 -719.64337158 56.53681564 19.0
23.00620651 -724.94061279 59.82309341 14.0
19.25901985 -719.7543335 57.10009384 4.0
19.89631081 -720.31677246 57.09072113 3.0
22.24916458 -723.95684814 59.43937302 12.0
23.24838448 -724.4609375 58.87115479 18.0
19.44591713 -719.29040527 56.25006485 12.0
19.57398987 -719.60876465 56.56091309 19.0
22.9648304 -724.89343262 59.91701126 9.0
19.33117485 -719.74188232 57.09611511 4.0
23.23912621 -724.4208374 58.92703247 7.0
19.40175438 -719.2199707 56.31228638 12.0
22.63492203 -724.52081299 59.90869904 12.0
19.59963417 -719.57489014 56.58398819 16.0
22.9321022 -724.84771729 60.00252151 11.0
19.51460266 -719.78491211 57.02326965 10.0
22.71729088 -725.06976318 60.63755798 13.0
23.13809586 -725.41833496 60.5951004 19.0
22.42250633 -724.16955566 59.77396393 13.0
19.36741447 -719.15429688 56.36921692 12.0
19.60651207 -719.53137207 56.61816406 16.0
22.88608742 -724.79864502 60.10243225 6.0
19.34467125 -719.09136963 56.42213058 15.0
19.56517792 -719.45959473 56.6835556 16.0
22.88058281 -725.02050781 60.57381821 19.0
19.54361534 -719.95574951 57.48235321 1.0
19.27638817 -719.0065918 56.49901581 15.0
19.52238846 -719.3895874 56.74771881 16.0
19.43270683 -719.85314941 57.59587479 3.0
22.13365936 -723.71466064 59.80085754 11.0
19.48836327 -719.31774902 56.81178665 16.0
21.28058052 -722.88183594 59.84215927 1.0
21.95264816 -723.35705566 59.62937164 15.0
22.48386765 -724.27319336 60.3327713 15.0
19.43852043 -719.24298096 56.88083649 16.0
19.40963173 -719.17584229 56.93997955 16.0
21.3904705 -722.57006836 59.44099808 6.0
21.28807449 -722.79119873 59.93985748 15.0
21.91746521 -723.25695801 59.76538849 15.0
22.21243286 -722.82324219 58.76329041 1.0
21.2210598 -722.72265625 60.05207062 13.0
21.86615181 -723.19677734 59.86421967 13.0
23.93176651 -726.05230713 61.41793442 13.0
21.65606689 -722.3314209 58.91015625 10.0
23.87543488 -726.0055542 61.55289459 6.0
21.68812752 -722.29663086 58.93202209 10.0
21.05670738 -722.3081665 59.88867188 8.0
23.89969444 -725.96887207 61.58614349 3.0
21.60176086 -721.97387695 58.66584778 8.0
21.74928474 -722.27325439 58.92867279 10.0
23.61737061 -725.60668945 61.55269623 6.0
21.5432415 -721.90197754 58.76334381 17.0
21.76266289 -722.23120117 58.96659851 5.0
21.1725769 -722.25201416 59.89235687 11.0
21.4578495 -722.61346436 60.04865265 3.0
21.31452942 -722.82452393 60.60844803 9.0
23.65950394 -725.57220459 61.56410217 13.0
21.64491844 -722.13665771 59.11909103 5.0
21.39735413 -722.5425415 60.15978622 6.0
23.34547997 -725.20477295 61.55080414 4.0
21.10553741 -722.1350708 60.05144119 12.0
21.47207832 -722.7880249 60.56039047 11.0
23.16721344 -724.84918213 61.38231659 13.0
23.38144684 -725.16644287 61.57439804 8.0
20.90485954 -721.24304199 59.03676605 2.0
23.07022095 -724.78619385 61.5558815 5.0
21.03302383 -721.2520752 58.9780159 3.0
21.21450806 -722.33398438 60.48894882 12.0
23.10094261 -724.74871826 61.58271027 7.0
21.20247459 -722.27844238 60.55696869 15.0
22.80746651 -724.36181641 61.53778839 4.0
22.82374573 -724.32269287 61.57816696 10.0
22.60435295 -723.95159912 61.4366951 11.0
21.09752846 -722.08917236 60.82260132 18.0
22.53449821 -723.88433838 61.57818604 9.0
22.3324337 -723.50689697 61.41703415 13.0
22.23647881 -723.4307251 61.58159637 8.0
22.04563713 -723.05401611 61.39670563 19.0
21.93636703 -722.9720459 61.56916046 9.0
21.69534874 -722.58392334 61.41413498 8.0
21.60722733 -722.49920654 61.56845856 7.0
23.52705002 -725.63696289 49.38139725 17.0
23.48574066 -725.74578857 49.67483902 16.0
22.97331047 -725.22875977 49.44444275 18.0
22.78372574 -725.13720703 49.55052185 10.0
23.44280434 -725.64489746 49.80224609 16.0
23.45065308 -725.60748291 49.8480072 15.0
22.96852875 -725.24493408 49.86739731 2.0
23.47493553 -725.7401123 50.1124115 16.0
23.47570992 -725.70214844 50.15892029 16.0
22.82248497 -725.14093018 49.99355698 11.0
23.48304939 -725.66363525 50.20533752 15.0
22.89821815 -725.13220215 50.00292206 11.0
23.48394394 -725.6217041 50.25621796 18.0
23.45492744 -725.55963135 50.33362198 18.0
22.6660347 -724.76483154 49.98875809 5.0
22.66889 -724.74346924 50.01340103 7.0
23.44732475 -725.47766113 50.43240738 16.0
23.47798729 -725.66906738 50.6278801 18.0
23.47764778 -725.62426758 50.68175888 17.0
23.47364807 -725.5836792 50.73076248 18.0
22.7899704 -725.1305542 51.34956741 9.0
22.76277924 -725.0088501 51.49211502 19.0
22.2267437 -723.69006348 51.15730667 18.0
22.17667389 -723.65350342 51.19550705 15.0
22.16244125 -723.62194824 51.22803879 13.0
22.12012482 -723.58703613 51.26428604 10.0
22.10250664 -723.55419922 51.29806137 7.0
22.06208611 -723.51629639 51.33724213 7.0
22.01473618 -723.47924805 51.37553024 7.0
21.98287773 -723.44171143 51.41408157 5.0
21.9156208 -723.3984375 51.45889282 5.0
23.35660744 -725.40557861 52.72543335 16.0
22.92687607 -725.31439209 52.95482635 16.0
22.93422508 -725.2923584 52.97819138 12.0
22.93619919 -725.26635742 53.00764847 10.0
23.03126717 -725.04119873 52.77056122 9.0
22.86750031 -725.23077393 53.06850433 14.0
22.6796608 -724.9543457 52.9575119 10.0
22.80802727 -725.19628906 53.12539291 13.0
23.26815224 -725.48199463 53.1278038 12.0
22.10737801 -723.68884277 52.07427979 18.0
22.68024063 -724.9274292 52.98772812 16.0
22.82659912 -725.17242432 53.14743423 14.0
23.02478027 -725.42150879 53.2782135 10.0
22.08291054 -723.65270996 52.11338806 18.0
22.67465973 -724.89770508 53.02261353 16.0
22.85328674 -725.14831543 53.16737366 10.0
23.15796471 -725.41265869 53.24498367 5.0
22.07142067 -723.62310791 52.14451218 17.0
22.85406303 -724.6887207 52.74364853 13.0
22.6799736 -724.87298584 53.04895782 6.0
23.07798958 -725.37615967 53.31378937 10.0
23.79377556 -726.10394287 53.60585785 5.0
22.04734421 -723.58996582 52.18035507 17.0
22.48880577 -724.58892822 52.93343735 14.0
22.85692787 -725.0980835 53.22369766 15.0
22.97350883 -725.33557129 53.39532852 17.0
23.78511429 -726.07946777 53.64003372 5.0
22.02795601 -723.55627441 52.21628952 18.0
22.56845856 -724.79888916 53.1603241 19.0
22.94820213 -725.30487061 53.43941116 17.0
23.7670517 -726.05255127 53.6814537 5.0
22.01145363 -723.52484131 52.24956131 18.0
22.62778473 -724.78399658 53.16176605 10.0
22.9347744 -725.05877686 53.24586868 4.0
22.94868088 -725.27941895 53.46876526 17.0
21.9905777 -723.49035645 52.28628159 17.0
22.65590477 -724.76165771 53.17944717 4.0
22.94490433 -725.25164795 53.50219345 18.0
21.74206161 -723.16113281 52.16609955 17.0
21.96806717 -723.4552002 52.32374573 16.0
21.94841766 -723.42236328 52.35854721 15.0
22.54773903 -724.68634033 53.2908287 7.0
22.70961189 -724.93847656 53.44804001 15.0
22.8593483 -725.18493652 53.60754013 18.0
23.0390625 -725.43249512 53.7477417 17.0
21.70833778 -723.09558105 52.23269272 15.0
21.91990471 -723.38677979 52.39685059 15.0
22.69607162 -724.68927002 53.24940872 4.0
22.72118759 -724.91430664 53.47200012 16.0
22.8797493 -725.16223145 53.62703323 18.0
21.68091393 -723.05755615 52.27170181 15.0
21.89611435 -723.35064697 52.435215 14.0
22.86605072 -725.13226318 53.66607285 13.0
21.63926506 -723.01483154 52.31609726 10.0
21.86890793 -723.31323242 52.47504425 15.0
22.47828293 -724.58886719 53.41644287 15.0
21.63828087 -722.98632813 52.34395218 7.0
21.85351753 -723.28088379 52.50870514 14.0
22.9817276 -725.31726074 53.90427399 18.0
21.59620094 -722.94128418 52.39057541 7.0
21.83302689 -723.24334717 52.54793549 14.0
22.95754623 -725.28411865 53.95203781 16.0
21.61264038 -722.91619873 52.41379547 5.0
21.81713676 -723.20874023 52.58375168 10.0
22.12457657 -723.52386475 52.70432663 19.0
21.54911423 -722.87091064 52.4618721 7.0
21.85935783 -723.19671631 52.591465 10.0
21.52202225 -722.82983398 52.50341034 10.0
21.86256599 -723.16595459 52.62150192 11.0
22.51708984 -724.67926025 53.79582214 16.0
22.72270012 -724.94140625 53.93208694 11.0
22.92110252 -725.19732666 54.06682205 16.0
21.51203346 -722.79577637 52.53684998 7.0
21.84527969 -723.1305542 52.65802383 11.0
21.98299408 -723.39782715 52.84929657 19.0
22.74157143 -724.91601563 53.95471191 16.0
23.02112389 -725.40643311 54.28677368 14.0
21.53971291 -722.77392578 52.55594254 2.0
21.84065056 -723.09887695 52.68957138 10.0
21.96601295 -723.36279297 52.88656998 18.0
22.53059959 -724.62347412 53.8539505 16.0
22.70495224 -724.88049316 54.0073204 13.0
22.88803482 -725.13500977 54.15152359 16.0
23.01440239 -725.37713623 54.32431412 16.0
21.50322533 -722.73095703 52.59967422 5.0
21.87356758 -723.07873535 52.70598602 5.0
22.4712677 -724.58197021 53.9176445 18.0
23.0146904 -725.34875488 54.35786819 17.0
21.57285118 -722.72473145 52.6007309 5.0
21.33449173 -722.88092041 52.95327759 8.0
23.00723648 -725.32080078 54.39405823 14.0
21.53386307 -722.68243408 52.64383698 5.0
21.36364746 -722.86016846 52.97050858 2.0
22.61693382 -724.77966309 54.15084457 16.0
22.9709053 -725.28826904 54.4474144 12.0
21.49228096 -722.64080811 52.68639755 5.0
21.36162567 -722.8314209 52.9986496 2.0
22.95590973 -725.26049805 54.48637009 15.0
21.53212166 -722.62091064 52.70238113 5.0
21.35050201 -722.79400635 53.03607559 7.0
21.50050163 -723.0748291 53.23429489 9.0
22.94766426 -725.22851563 54.52748871 12.0
21.34449768 -722.76184082 53.06781387 11.0
21.49990082 -723.0446167 53.26422119 3.0
22.54115677 -724.67913818 54.28953171 17.0
22.72742653 -724.93945313 54.43710327 15.0
22.92726135 -725.19781494 54.57198715 15.0
23.10987663 -725.44934082 54.71259308 14.0
20.99513817 -722.37744141 52.97247696 2.0
21.3421669 -722.73071289 53.09807968 7.0
21.6158123 -723.05010986 53.24318314 3.0
22.55835915 -724.65423584 54.31173706 15.0
22.73605728 -724.9130249 54.46422958 16.0
22.88837433 -725.16394043 54.62779236 11.0
23.051157 -725.41375732 54.78191376 11.0
21.29977417 -722.68249512 53.14891052 8.0
21.48187447 -722.97485352 53.33533478 6.0
22.53317833 -724.61724854 54.36174393 12.0
22.71284485 -724.8772583 54.51399231 18.0
22.88411331 -725.13208008 54.66703415 15.0
20.88390732 -722.27252197 53.07963943 2.0
21.14441872 -722.6005249 53.24404526 4.0
21.36034584 -722.90649414 53.41895676 7.0
22.50604057 -724.58306885 54.40907288 19.0
22.8490715 -725.09832764 54.7210083 14.0
20.83930969 -722.22332764 53.12919998 5.0
21.16497803 -722.57427979 53.26703262 2.0
21.3562851 -722.87243652 53.45280457 9.0
22.66551018 -724.81005859 54.60862732 18.0
22.87956619 -725.07373047 54.73728943 10.0
21.01091766 -722.24798584 53.09277725 5.0
21.19728279 -722.54992676 53.28681564 2.0
21.3640213 -722.84014893 53.4833374 7.0
22.63789177 -724.77264404 54.66166687 18.0
20.98302078 -722.20648193 53.13365555 5.0
21.30814934 -722.55603027 53.26900864 2.0
21.36964035 -722.81085205 53.51105499 11.0
22.64048958 -724.7444458 54.69287491 19.0
21.00098228 -722.18109131 53.1558075 2.0
21.02620125 -722.42913818 53.42040253 3.0
21.50867462 -723.05718994 53.74639511 14.0
21.0225296 -722.15704346 53.17643738 10.0
21.05322838 -722.40643311 53.43896103 4.0
21.46065903 -723.01141357 53.79999161 10.0
21.06629944 -722.13897705 53.18960571 10.0
21.06048965 -722.37493896 53.46796417 4.0
21.45231438 -722.97558594 53.83688354 14.0
21.06697464 -722.10723877 53.21881104 10.0
21.02830887 -722.33166504 53.51238632 5.0
21.2202549 -722.63439941 53.70292282 10.0
21.43950462 -722.94012451 53.87406921 13.0
21.08813477 -722.08093262 53.24128342 10.0
21.03586769 -722.30004883 53.54138184 10.0
21.14960861 -722.57696533 53.76826096 13.0
21.37429428 -722.8861084 53.93857574 12.0
21.11112213 -722.05529785 53.26293182 10.0
21.02962685 -722.26342773 53.57650757 11.0
21.16265678 -722.54705811 53.79517365 13.0
21.38732147 -722.85638428 53.96556091 12.0
21.09993935 -722.0189209 53.29719925 10.0
21.02062798 -722.22766113 53.61103058 12.0
21.16769218 -722.51635742 53.82387161 10.0
21.35606003 -722.81439209 54.01214218 13.0
21.07386208 -721.97277832 53.34163666 10.0
21.02458572 -722.19232178 53.64366531 13.0
21.07657051 -722.44891357 53.90156555 11.0
21.04449272 -721.93121338 53.38208389 10.0
21.04763222 -722.1697998 53.66199493 17.0
21.07559776 -722.41778564 53.93141174 9.0
21.03448105 -721.890625 53.41992569 10.0
21.08299065 -722.14562988 53.68043518 17.0
21.07495117 -722.38049316 53.96705246 10.0
21.00496292 -721.84643555 53.46260452 10.0
21.09871483 -722.1184082 53.70386887 18.0
21.05651283 -722.34100342 54.00728607 10.0
20.96648788 -721.79650879 53.51124573 7.0
21.10711288 -722.08636475 53.73254395 17.0
21.00680542 -722.28826904 54.06459045 14.0
21.20806503 -722.59509277 54.25196838 10.0
21.43095398 -722.90325928 54.42161179 18.0
20.93965912 -721.75488281 53.55122757 7.0
21.12870789 -722.06323242 53.75133514 15.0
21.17522812 -722.55303955 54.2985611 12.0
21.39827156 -722.86218262 54.4691391 15.0
20.93615341 -721.71789551 53.58486176 8.0
21.13043976 -722.02862549 53.78308105 17.0
21.16906738 -722.51550293 54.33595276 10.0
21.39216995 -722.82519531 54.50700378 18.0
20.9005928 -721.67034912 53.63087463 8.0
21.10188103 -721.98461914 53.82701874 12.0
21.14815712 -722.47485352 54.37888336 11.0
20.875103 -721.62432861 53.67450714 8.0
21.07993126 -721.94067383 53.86997986 13.0
21.07416153 -722.41375732 54.45103455 10.0
23.37499428 -725.29882813 55.8379364 7.0
20.83486366 -721.57427979 53.7230072 8.0
21.03125954 -721.88848877 53.92369461 15.0
21.08609581 -722.3838501 54.47762299 12.0
20.86720657 -721.54644775 53.74480438 8.0
21.00888824 -721.83966064 53.97113419 15.0
21.05952835 -722.33410645 54.53016281 13.0
23.40340996 -725.46704102 56.17481232 2.0
20.78462601 -721.47888184 53.81278229 11.0
20.99492455 -721.80004883 54.00891876 14.0
21.02424812 -722.28735352 54.58125305 13.0
23.19519997 -725.40771484 56.37196732 0.0
20.67380142 -721.40155029 53.8920784 11.0
20.96622276 -721.75671387 54.05187607 13.0
20.64408302 -721.34997559 53.94068146 11.0
20.94669914 -721.71026611 54.09651566 13.0
22.92284203 -725.06817627 56.36667252 18.0
20.62264061 -721.30804443 53.97981644 11.0
20.90652657 -721.66186523 54.14532852 14.0
20.5917263 -721.25531006 54.02935791 8.0
20.87731171 -721.61096191 54.19502258 13.0
20.63485336 -721.23742676 54.04080963 8.0
20.85759544 -721.56793213 54.23633957 13.0
22.40391731 -724.63842773 56.57256699 1.0
20.63899803 -721.20330811 54.07029343 5.0
20.83469772 -721.52331543 54.2793541 14.0
22.70059204 -724.66534424 56.39190292 0.0
20.57484818 -721.13592529 54.13576508 5.0
20.7420826 -721.44598389 54.36073685 18.0
20.55740356 -721.09228516 54.17564774 5.0
20.69277 -721.38995361 54.41726685 16.0
22.92097473 -725.11187744 56.9054985 7.0
20.51958275 -721.03747559 54.22729492 5.0
20.65690994 -721.33679199 54.46945953 18.0
23.04832268 -725.33465576 57.15699005 5.0
20.48099136 -720.98657227 54.27554703 5.0
20.62194061 -721.28814697 54.5173645 16.0
23.01695633 -725.29449463 57.22873306 4.0
20.4366951 -720.92590332 54.33276749 5.0
20.63667107 -721.25292969 54.54677582 15.0
22.9342041 -725.24798584 57.34122849 4.0
20.40142059 -720.87109375 54.38393021 5.0
20.6534977 -721.22070313 54.5730896 13.0
22.56525993 -724.67150879 57.04541397 4.0
22.93583107 -725.21820068 57.37856674 4.0
20.33847237 -720.80847168 54.44461823 5.0
20.60576439 -721.16601563 54.62787247 11.0
22.64419746 -724.65618896 57.02092361 13.0
22.70493126 -724.90936279 57.28619766 1.0
22.908535 -725.17755127 57.44817352 4.0
20.32864189 -720.76165771 54.48599243 5.0
20.56588936 -721.1072998 54.6851387 10.0
22.63750267 -724.61761475 57.07136917 14.0
22.68503189 -724.86865234 57.34874725 1.0
22.89375496 -725.14068604 57.50497437 4.0
20.29255104 -720.7053833 54.53824997 5.0
20.53325653 -721.05352783 54.7369194 11.0
22.65172958 -724.82727051 57.42004395 2.0
22.78699493 -725.08831787 57.64019394 4.0
19.83805275 -720.46282959 54.79574585 2.0
20.49259186 -720.99597168 54.79305267 11.0
21.43147087 -722.79144287 56.14352417 11.0
22.6325016 -724.78814697 57.48012924 1.0
19.83674431 -720.42260742 54.83024979 2.0
20.45577431 -720.94207764 54.84538269 11.0
21.93395615 -723.15014648 56.15877151 6.0
22.59529877 -724.74743652 57.5527916 2.0
19.84058762 -720.38452148 54.86227417 5.0
20.42586708 -720.89080811 54.89437866 11.0
21.69425583 -723.04058838 56.35884476 3.0
22.5614624 -724.70697021 57.62305832 4.0
19.8429184 -720.34564209 54.89509201 5.0
20.33495712 -720.81262207 54.9752655 13.0
21.39917374 -722.67095947 56.27711487 10.0
21.55475235 -722.96087646 56.49200821 10.0
19.89994621 -720.32897949 54.90279007 5.0
20.30384254 -720.75756836 55.02758026 13.0
20.80594063 -722.43383789 56.7097435 3.0
21.58346176 -722.93096924 56.51314926 6.0
19.97530556 -720.32336426 54.89896393 5.0
20.26162148 -720.69970703 55.0838089 13.0
20.49510384 -721.04541016 55.28654861 12.0
21.10556602 -722.25244141 56.22378922 16.0
19.95615196 -720.26940918 54.94672012 5.0
20.22437096 -720.63873291 55.14199066 13.0
20.43834686 -720.97723389 55.35688782 9.0
21.10077095 -722.20794678 56.26921082 13.0
21.33969879 -722.5322876 56.43746567 2.0
21.41058159 -722.79711914 56.71466827 1.0
19.9507103 -720.2265625 54.98345184 8.0
20.19099617 -720.58404541 55.19408798 13.0
19.92240524 -720.17285156 55.03190613 8.0
20.15461349 -720.52758789 55.24801254 15.0
21.00272179 -722.34051514 56.74098206 3.0
19.86468506 -720.10247803 55.09773636 9.0
20.11187363 -720.46539307 55.30775452 15.0
20.99780655 -722.29742432 56.78619385 5.0
19.82711601 -720.04364014 55.15141678 9.0
20.07609367 -720.4085083 55.36186981 15.0
21.09159851 -722.29119873 56.7620163 10.0
21.42468262 -722.89154053 57.19849777 3.0
19.79134941 -719.98010254 55.20874405 9.0
20.04537964 -720.34838867 55.4179039 13.0
21.21679115 -722.53521729 57.05640411 3.0
21.42065239 -722.84716797 57.24744797 3.0
19.75439453 -719.92077637 55.26260376 9.0
20.01508904 -720.29327393 55.46954346 15.0
21.40115738 -722.80236816 57.3028183 2.0
19.71446991 -719.85961914 55.31825256 12.0
19.96392441 -720.22808838 55.53276062 16.0
20.54388809 -720.97943115 55.88591003 16.0
21.43951797 -722.77600098 57.31568909 8.0
19.68132973 -719.79602051 55.37500381 9.0
19.93418884 -720.16717529 55.58905411 15.0
21.06744766 -722.36120605 57.29008865 3.0
19.63391304 -719.73309326 55.43290329 9.0
19.88533783 -720.10479736 55.6493721 15.0
21.02037621 -722.30731201 57.36260605 4.0
19.59008408 -719.66339111 55.49583817 12.0
19.84979439 -720.04034424 55.70941162 13.0
20.22094154 -720.4609375 55.84893417 17.0
21.07533264 -722.28125 57.36954117 6.0
21.40194511 -722.63916016 57.47570038 15.0
19.54658699 -719.59881592 55.5544548 12.0
19.85169411 -719.99853516 55.74445724 13.0
19.81396866 -720.2322998 56.1205864 19.0
21.29720306 -722.56445313 57.59623718 12.0
19.5132103 -719.5333252 55.61244202 12.0
19.85222816 -719.95062256 55.78486252 15.0
20.32099533 -720.66290283 56.21540451 3.0
19.4623127 -719.46411133 55.67557907 9.0
19.83196831 -719.89776611 55.8324585 15.0
19.90046501 -720.43231201 56.50846863 4.0
23.3309536 -725.52294922 59.41663361 11.0
19.42780876 -719.40545654 55.72795105 12.0
19.81510544 -719.84899902 55.87604523 12.0
19.21604347 -719.81976318 56.58594513 1.0
19.92763901 -720.40368652 56.52815628 6.0
19.469347 -719.37921143 55.74399567 9.0
19.54372025 -719.67034912 56.06800842 16.0
19.28119278 -719.80206299 56.58932114 3.0
19.80724525 -720.30267334 56.64308929 4.0
23.78526115 -726.30975342 60.1739769 18.0
19.42415047 -719.31176758 55.80473328 12.0
19.5534668 -719.63061523 56.0997467 16.0
22.86887741 -724.82183838 59.29167175 14.0
23.46302223 -725.70129395 59.80651474 19.0
19.42438889 -719.26147461 55.84555054 12.0
19.59396172 -719.60028076 56.11867905 15.0
19.51001167 -719.81420898 56.53681564 12.0
19.40394592 -719.203125 55.89551926 9.0
23.33024788 -724.58795166 58.5799942 13.0
19.58657646 -719.54901123 56.16256332 16.0
22.59876251 -724.95617676 60.06019211 5.0
20.28254128 -720.62768555 56.83200455 3.0
19.31022263 -719.10931396 55.98371506 12.0
23.28728867 -724.54302979 58.66806793 10.0
19.533144 -719.47723389 56.23070526 16.0
22.79622841 -725.22424316 60.30319977 9.0
20.00100327 -720.45751953 57.05421066 14.0
23.42259026 -725.58538818 60.01713562 16.0
19.22960472 -719.02453613 56.06287384 12.0
23.25010872 -724.50115967 58.74809265 13.0
19.50056648 -719.41827393 56.28479767 16.0
19.26998138 -719.82177734 57.18130875 3.0
22.79372406 -725.18896484 60.35626984 14.0
19.11182785 -718.91094971 56.17012405 12.0
23.23521042 -724.45727539 58.81546783 16.0
19.46724319 -719.35003662 56.34667206 16.0
22.64769554 -724.58288574 59.77714539 7.0
22.94075394 -724.90313721 59.86283875 11.0
19.529459 -719.89172363 57.06419754 5.0
19.8173275 -720.28143311 57.2578392 8.0
22.97320557 -725.45074463 60.62852859 16.0
19.06735229 -718.84069824 56.23249435 15.0
23.21585464 -724.41656494 58.88172913 10.0
19.43073082 -719.28540039 56.40593338 16.0
22.88740158 -724.85601807 59.97084808 3.0
19.56958771 -719.86444092 57.07934189 12.0
22.74294662 -725.10095215 60.52656174 17.0
19.0313797 -718.77160645 56.29277039 15.0
23.19291115 -724.37237549 58.95490265 4.0
19.38687134 -719.21368408 56.47216034 15.0
22.87040138 -724.81286621 60.04436874 11.0
22.69937134 -725.05334473 60.63238907 13.0
23.12125015 -725.39562988 60.57614899 15.0
22.01002884 -723.53753662 59.38695526 13.0
18.9860363 -718.69995117 56.35622025 12.0
19.34474373 -719.14526367 56.53530121 15.0
19.02628136 -718.67364502 56.37160492 15.0
22.34100914 -724.09387207 59.90431595 17.0
19.31240654 -719.08148193 56.59296799 16.0
22.87288666 -725.0067749 60.55197525 16.0
19.51556587 -719.95324707 57.62651062 4.0
18.98807526 -718.60217285 56.43379974 12.0
19.15823174 -718.95068359 56.72553635 18.0
19.64212036 -719.96246338 57.58693695 14.0
19.11455154 -718.87670898 56.79325485 16.0
21.45257568 -722.68322754 59.32504654 6.0
21.30747604 -722.89672852 59.85282135 15.0
21.42016029 -722.62384033 59.40911865 5.0
21.30817413 -722.84783936 59.90976715 18.0
21.88498497 -723.28509521 59.7677536 15.0
21.38002396 -722.5668335 59.49446487 4.0
21.24958229 -722.78521729 60.01562119 15.0
21.85194969 -723.2331543 59.85038757 16.0
22.19535637 -723.84472656 60.32762909 14.0
21.64507675 -722.36401367 58.91926193 11.0
21.2484436 -722.74047852 60.06853104 6.0
21.69958305 -722.34069824 58.9186058 8.0
21.11148262 -722.38653564 59.83735657 16.0
23.81678581 -725.98944092 61.56060028 4.0
21.59201813 -722.01293945 58.67783737 6.0
21.74248505 -722.31335449 58.92795944 11.0
21.47641945 -722.72583008 59.9583931 9.0
23.85430527 -725.95495605 61.57688522 8.0
21.52164459 -721.93933105 58.78700256 18.0
21.74830818 -722.26959229 58.97293854 3.0
21.18276787 -722.31811523 59.87761688 19.0
21.48875999 -722.68286133 60.00159073 13.0
22.51909447 -723.26715088 59.40877533 1.0
23.58481979 -725.59802246 61.53709412 5.0
21.53911018 -721.89941406 58.82144547 6.0
21.15112305 -722.25866699 59.96107101 19.0
21.42942238 -722.61572266 60.11297226 6.0
23.6068306 -725.56121826 61.57374191 8.0
21.44153595 -722.83605957 60.57551193 14.0
23.35623741 -725.20330811 61.5001564 9.0
20.85952187 -721.79504395 59.91796494 19.0
21.45761108 -722.79602051 60.61398697 14.0
23.34658623 -725.16290283 61.57240677 14.0
21.0156517 -721.30218506 59.01959991 2.0
20.83500481 -721.73852539 59.99127197 19.0
21.06740952 -722.08721924 60.19742966 18.0
23.11035347 -724.7991333 61.47848892 6.0
21.00357056 -722.01397705 60.31288528 7.0
21.20905304 -722.35192871 60.54288101 16.0
23.091856 -724.75531006 61.56082153 8.0
21.22143555 -722.30957031 60.58498764 19.0
22.78718185 -724.36773682 61.54469681 5.0
20.94932556 -721.89282227 60.47692108 18.0
22.80589294 -724.33026123 61.58257294 7.0
20.9074192 -721.82897949 60.5702858 18.0
22.55684471 -723.95336914 61.48534012 7.0
20.86597633 -721.76470947 60.66377258 18.0
22.52580643 -723.89685059 61.58819199 12.0
20.829319 -721.69561768 60.76010895 18.0
22.32789421 -723.53045654 61.4215889 14.0
22.24979401 -723.45788574 61.57619095 7.0
22.03455925 -723.07806396 61.42534637 18.0
21.948246 -722.99884033 61.58675385 8.0
21.75024605 -722.6184082 61.40890503 15.0
21.64239883 -722.53656006 61.57989502 10.0
21.38282204 -722.13696289 61.44678879 7.0
23.74707413 -726.36767578 47.20304489 6.0
23.95267296 -726.36303711 47.22767639 4.0
23.95251465 -726.34802246 47.25210953 18.0
23.872509 -726.33068848 47.27348328 13.0
23.94660568 -726.3425293 47.72105408 11.0
23.66586304 -726.31671143 47.75071335 18.0
23.61122131 -726.26989746 47.82053757 18.0
23.61259651 -726.253479 47.84563828 16.0
23.59981346 -726.23913574 47.86700821 14.0
23.58527756 -726.22277832 47.8912735 14.0
23.56673241 -726.20709229 47.91434097 18.0
23.53979111 -726.15820313 47.98684692 16.0
23.52925873 -726.11157227 48.05592728 16.0
23.51321793 -726.09545898 48.07915497 18.0
23.49771118 -726.0612793 48.12902451 16.0
23.31983757 -725.75463867 48.10757828 9.0
23.0058403 -725.60925293 48.29275894 12.0
23.05282402 -725.49725342 48.45202255 12.0
23.4696331 -725.70019531 49.51210785 17.0
23.42131233 -725.45147705 49.40625 11.0
23.43225288 -725.6416626 49.59066772 18.0
23.43987083 -725.60687256 49.63511276 16.0
22.96705055 -725.30273438 49.60809708 0.0
23.48619843 -725.70373535 49.93688202 17.0
22.78357697 -724.96466064 49.58892441 2.0
22.78536224 -725.18328857 49.76392746 1.0
23.04218674 -724.7701416 49.39529419 15.0
22.77106094 -725.16113281 49.79214859 10.0
23.01564217 -725.32952881 50.01522446 5.0
22.44583702 -724.5670166 49.61751938 15.0
23.02311325 -725.31011963 50.03894806 5.0
22.45146942 -724.52606201 49.66707611 10.0
22.77688217 -724.98132324 50.01418304 4.0
22.78241539 -724.96246338 50.03697205 9.0
22.54374695 -724.5994873 50.03126526 9.0
22.57084846 -724.76086426 50.28754807 14.0
23.54299355 -725.7354126 51.18201065 15.0
23.54457092 -725.69439697 51.23261261 18.0
23.52391815 -725.65106201 51.29097366 15.0
23.52061272 -725.60900879 51.34354019 19.0
23.14403152 -725.47723389 52.97674942 8.0
23.01564407 -725.4395752 53.06763458 19.0
23.01821136 -725.4161377 53.09534073 19.0
21.2857151 -722.77258301 51.5700531 7.0
22.89243507 -725.15563965 52.97110367 6.0
21.26892853 -722.73931885 51.60375595 7.0
23.01372147 -725.36340332 53.16106033 16.0
21.24139595 -722.70593262 51.63754654 5.0
22.59438324 -724.8157959 52.9801178 18.0
22.96177292 -725.30749512 53.24706268 18.0
22.59393311 -724.79083252 53.00930405 19.0
22.87697792 -725.0534668 53.09740448 11.0
22.9726696 -725.25872803 53.30215836 10.0
22.74700356 -724.98382568 53.22052765 13.0
23.0788765 -725.2479248 53.27780151 6.0
23.11606979 -725.4697876 53.47977066 15.0
21.78422356 -723.18737793 52.06895447 19.0
22.72562027 -724.95263672 53.26408386 15.0
22.86803055 -725.19317627 53.41804123 13.0
21.76556778 -723.15570068 52.10290146 18.0
22.75418091 -724.93188477 53.27951431 7.0
22.87177467 -725.16882324 53.44592667 19.0
23.78811646 -726.12390137 53.830616 2.0
21.73797607 -723.12133789 52.1402092 19.0
22.51933289 -724.6473999 53.1958847 10.0
22.83782768 -724.91967773 53.26758575 5.0
23.82274818 -726.1027832 53.84011459 4.0
21.72325706 -723.0904541 52.17295074 18.0
22.48757935 -724.61621094 53.24052429 14.0
22.77950096 -724.88562012 53.32592392 8.0
23.81109428 -726.07904053 53.87712097 5.0
21.70234108 -723.05596924 52.20978928 18.0
23.82103157 -726.05505371 53.90319061 3.0
21.68251801 -723.01989746 52.24807358 17.0
22.96707344 -725.29730225 53.74941635 17.0
23.86274529 -726.03161621 53.91199493 3.0
21.65741158 -722.98547363 52.28500366 17.0
22.60223961 -724.55462646 53.27921677 4.0
22.9540596 -725.27062988 53.78702545 19.0
23.90779495 -726.01135254 53.91482544 4.0
21.63515282 -722.95336914 52.3192749 15.0
23.93999481 -725.99176025 53.92341614 4.0
21.60865021 -722.91473389 52.36048126 15.0
22.75575066 -724.96942139 53.7251091 18.0
22.91376686 -725.21337891 53.87240601 15.0
23.05966568 -725.45281982 54.02331543 12.0
23.97152328 -725.96789551 53.93793869 4.0
21.39171791 -722.58911133 52.22547531 17.0
21.59667015 -722.88360596 52.39284897 16.0
22.88384628 -725.184021 53.9197998 17.0
23.03351593 -725.42474365 54.06947708 14.0
24.00297737 -725.94696045 53.9486351 5.0
21.37458038 -722.55218506 52.26281357 17.0
21.57774925 -722.84680176 52.43144989 16.0
22.74116898 -724.91241455 53.79791641 17.0
22.88384819 -725.1552124 53.95466232 17.0
24.03458405 -725.92321777 53.96287918 4.0
21.33050537 -722.50994873 52.30663681 15.0
21.54989815 -722.81054688 52.47010803 16.0
22.5352993 -724.62957764 53.70144653 17.0
22.71132088 -724.88183594 53.84470749 18.0
22.87857437 -725.12884521 53.98866272 13.0
23.02679634 -725.37011719 54.13996887 18.0
24.0525341 -725.90136719 53.98173523 3.0
21.30379868 -722.47125244 52.34604263 12.0
21.52679253 -722.77380371 52.5088501 14.0
22.51866722 -724.59857178 53.74262238 18.0
22.68963051 -724.85064697 53.88923264 19.0
23.0141983 -725.3414917 54.18073654 14.0
24.0985527 -725.88031006 53.98491669 3.0
21.27091789 -722.43206787 52.38613129 10.0
21.50647736 -722.73937988 52.54488373 15.0
24.13518715 -725.86004639 53.99190903 3.0
21.23365021 -722.39300537 52.42626572 10.0
21.49250031 -722.70855713 52.57679367 12.0
22.97107697 -725.28643799 54.26729202 15.0
24.17090607 -725.84118652 53.99746704 4.0
21.20494461 -722.35113525 52.46866989 10.0
21.46554565 -722.66821289 52.6192131 10.0
21.79135895 -722.99572754 52.73374939 18.0
22.96857071 -725.25701904 54.30457687 14.0
21.21401787 -722.32147217 52.49702835 7.0
21.51917648 -722.652771 52.62992096 11.0
21.34204292 -722.83190918 52.95203781 12.0
21.82019615 -723.19958496 52.9976387 16.0
22.95939064 -725.22662354 54.34593201 11.0
23.21915436 -725.48034668 54.42915344 18.0
21.16122627 -722.27655029 52.54349899 7.0
21.50736809 -722.62225342 52.66114807 11.0
21.36275482 -722.81072998 52.97096252 13.0
21.51018333 -723.08679199 53.16008759 14.0
22.54990959 -724.69152832 54.12615967 19.0
22.79435921 -724.9552002 54.230793 15.0
22.92853928 -725.19805908 54.3943367 10.0
23.08855247 -725.44189453 54.5398407 11.0
21.15531158 -722.2434082 52.57592773 7.0
21.49415016 -722.58752441 52.69656754 11.0
21.47097588 -723.04498291 53.20893097 13.0
22.74481964 -724.91943359 54.29320526 14.0
22.916996 -725.16864014 54.43542862 10.0
23.05692482 -725.41070557 54.59399414 11.0
21.19943047 -722.22692871 52.58925247 5.0
21.4882164 -722.55499268 52.72916031 9.0
21.47806549 -723.01605225 53.23759842 9.0
22.55744743 -724.63525391 54.18929291 17.0
22.69728088 -724.88366699 54.35481644 15.0
22.90392876 -725.13879395 54.47759628 9.0
23.06100273 -725.38348389 54.62615967 10.0
21.15074921 -722.18273926 52.63461304 5.0
21.48925972 -722.52813721 52.75543213 4.0
21.44601059 -722.97949219 53.27988434 11.0
22.70439148 -724.85949707 54.38082123 16.0
22.90593529 -725.11419678 54.50673676 15.0
23.06142426 -725.35894775 54.65657425 12.0
21.21100616 -722.17169189 52.64157867 5.0
20.96896362 -722.32885742 52.99736023 4.0
21.16553116 -722.62945557 53.17652512 4.0
21.55937576 -722.980896 53.26130295 4.0
22.65389824 -724.82275391 54.44469452 15.0
23.01860046 -725.3258667 54.71838379 3.0
21.18782616 -722.13220215 52.68082428 5.0
20.8649025 -722.26263428 53.0714798 8.0
21.49437904 -722.93096924 53.322155 9.0
22.61906052 -724.78814697 54.49970627 15.0
21.1896534 -722.10107422 52.71041107 5.0
21.02850151 -722.28375244 53.03601456 10.0
21.15082169 -722.56091309 53.24668503 9.0
21.3821373 -722.86669922 53.40467072 10.0
22.63899231 -724.76226807 54.52254486 15.0
21.17461967 -722.06585693 52.74488831 5.0
21.01926994 -722.25024414 53.0694809 9.0
21.17701149 -722.53881836 53.2654686 4.0
21.35018158 -722.82739258 53.44950485 12.0
22.62900352 -724.73309326 54.56112289 12.0
21.06182289 -721.99432373 52.82001114 5.0
21.04129028 -722.22503662 53.09188843 3.0
21.09337997 -722.48022461 53.33390427 5.0
22.55572319 -724.69140625 54.63975143 17.0
22.73670578 -724.94812012 54.78282547 15.0
23.33569145 -725.47692871 54.89984512 6.0
