//X Y Z UserData ScanAngleRank NumberOfReturns ReturnNumber GpsTime Intensity Classification
100
13.99896622 -711.32958984 45.61375809 18.0
13.35912514 -710.41308594 45.06200409 6.0
13.93490505 -711.29931641 45.68621826 19.0
14.50354767 -712.39111328 46.56587982 13.0
14.44524097 -712.38720703 46.59896851 11.0
13.06352425 -709.9498291 45.14873886 10.0
13.03190041 -709.92858887 45.1917305 3.0
13.01115608 -709.90893555 45.23093033 2.0
13.01030636 -709.88726807 45.27249527 3.0
14.21994972 -712.36035156 46.74845886 1.0
13.00481033 -709.86346436 45.31871033 3.0
14.21496773 -712.33776855 46.79137039 1.0
12.98048687 -709.84405518 45.35764313 2.0
14.23215008 -712.31201172 46.8299942 1.0
14.18452454 -711.61767578 46.57155228 19.0
12.57714176 -709.10845947 45.08606339 5.0
12.52894878 -709.06555176 45.16824341 16.0
13.90497303 -711.23834229 46.589077 16.0
13.87203407 -711.222229 46.6293335 15.0
13.74602032 -710.84912109 46.57354736 19.0
11.95392036 -708.17663574 45.08971786 11.0
13.98033619 -711.4230957 47.00429916 19.0
13.69967842 -710.76873779 46.73675156 19.0
13.46726418 -710.44726563 46.59903336 19.0
13.68934345 -710.74810791 46.77830505 18.0
11.69567299 -707.68902588 45.09552765 6.0
13.15377998 -710.40057373 46.75572586 3.0
13.04602528 -710.04949951 46.61899948 13.0
13.23124599 -710.36791992 46.80066681 4.0
12.9587841 -710.03582764 46.65978241 9.0
13.11050129 -710.36047363 46.84122849 1.0
11.33978176 -707.17938232 45.09263229 7.0
13.07558823 -710.34466553 46.87879944 1.0
13.0503006 -710.32495117 46.92177582 1.0
11.29275513 -707.12902832 45.18065262 10.0
12.92508411 -709.9744873 46.78230667 12.0
13.0551157 -710.30285645 46.96269226 1.0
11.29117966 -707.10449219 45.2285614 3.0
12.71072292 -709.62567139 46.64118195 14.0
12.87611389 -709.95648193 46.82502747 18.0
13.01619816 -710.284729 47.00569534 1.0
11.26594734 -707.07830811 45.27398682 15.0
13.01911545 -710.26147461 47.04919434 1.0
11.03621387 -706.65374756 45.09547424 7.0
12.80261326 -709.91900635 46.90899277 1.0
13.00248337 -710.24194336 47.09001923 1.0
12.75617981 -709.9017334 46.94981766 1.0
12.99988174 -710.22070313 47.13094711 1.0
12.6714201 -709.53747559 46.81481552 4.0
12.76729774 -709.8762207 46.99665833 1.0
12.96134472 -710.20098877 47.17702103 1.0
14.45554066 -708.76721191 46.56742859 6.0
12.76493168 -709.85467529 47.03813553 1.0
12.96894646 -710.17852783 47.21801376 1.0
14.40944767 -708.74798584 46.60529709 3.0
12.7287035 -709.83496094 47.08204269 1.0
12.92686081 -710.16040039 47.26181412 1.0
12.76046276 -709.81030273 47.12369919 1.0
10.62174702 -706.07733154 45.12286758 13.0
12.72040939 -709.78948975 47.17038345 1.0
12.96236992 -710.11071777 47.34873199 9.0
10.60945988 -706.04907227 45.17409134 17.0
12.72865582 -709.76837158 47.20934677 1.0
9.70413303 -710.44451904 47.43087387 3.0
10.59376431 -706.02478027 45.21624374 19.0
12.69686317 -709.7467041 47.25626755 1.0
12.73914623 -709.72131348 47.29756165 5.0
10.30684853 -705.53277588 45.07606888 6.0
10.29140663 -705.50476074 45.12474442 16.0
12.25993252 -709.71472168 47.39208984 12.0
10.2662878 -705.47528076 45.17246628 16.0
12.29057598 -709.6885376 47.4369812 12.0
13.79276466 -710.87866211 48.09680557 18.0
10.24330235 -705.44598389 45.22051239 16.0
12.19192886 -709.67553711 47.47872925 11.0
13.7840147 -710.86090088 48.1338768 18.0
10.23832607 -705.42230225 45.26450729 14.0
12.22684574 -709.64904785 47.52355194 12.0
12.89373684 -709.94061279 47.68898392 2.0
9.97154808 -704.93994141 45.07236862 2.0
13.75951767 -710.84313965 48.1768837 19.0
10.21565247 -705.3928833 45.3127327 19.0
10.45907497 -705.83197021 45.54586411 14.0
10.24515152 -710.17694092 47.82347488 6.0
9.89620304 -704.9005127 45.11551285 7.0
13.74500847 -710.82373047 48.21935654 19.0
10.42266655 -705.80145264 45.59268951 19.0
11.67206478 -707.80993652 46.67234802 14.0
10.82931042 -710.09417725 47.85263443 4.0
9.87393951 -704.87011719 45.16447067 11.0
13.74048805 -710.80273438 48.26121521 18.0
11.5456295 -707.78338623 46.71316528 13.0
10.84868908 -710.06817627 47.89815521 5.0
9.86559296 -704.84368896 45.21189499 5.0
13.71839523 -710.7857666 48.30192566 19.0
11.52125263 -707.75964355 46.75693893 19.0
10.90402508 -710.03894043 47.94208145 5.0
9.82407761 -704.8112793 45.25611115 3.0
13.70036507 -710.76818848 48.34244919 19.0
11.46104145 -707.73461914 46.8000946 19.0
13.69428062 -710.74865723 48.38214874 18.0
10.13039875 -705.25360107 45.54875183 17.0
11.49889469 -707.70983887 46.85085297 4.0
12.79378796 -709.81567383 47.95087814 10.0
11.27979279 -707.30413818 46.69610596 13.0
11.38901329 -707.6829834 46.89361954 16.0
11.03511524 -709.95220947 48.07966614 5.0
13.21961403 -710.43487549 48.32573318 19.0
11.23009396 -707.27508545 46.74550629 15.0
11.37124157 -707.65618896 46.94368744 16.0
11.08511925 -709.92102051 48.12856293 5.0
11.35559368 -707.63232422 46.98826981 17.0
11.12728596 -709.89361572 48.17192078 6.0
11.34412003 -707.60705566 47.03575897 17.0
11.17758846 -709.86413574 48.217453 6.0
11.17164516 -707.2010498 46.87972641 9.0
11.32872105 -707.58453369 47.07768631 17.0
12.28628063 -709.74816895 48.19359207 5.0
11.0606823 -707.16918945 46.9262886 17.0
11.31554985 -707.55914307 47.12529755 17.0
12.28510857 -709.72473145 48.23904037 11.0
11.04376411 -707.14141846 46.97725296 17.0
11.30260086 -707.5322876 47.17578506 17.0
12.26226902 -709.70172119 48.28859329 16.0
11.02888012 -707.11669922 47.02263641 17.0
11.3116684 -707.50921631 47.22066116 17.0
12.23150444 -709.68200684 48.33346558 12.0
11.02020931 -707.09082031 47.07097244 17.0
12.23675823 -709.65795898 48.37864685 12.0
11.00172424 -707.06427002 47.11933136 17.0
12.33364105 -709.62683105 48.41710663 16.0
10.98519993 -707.04071045 47.16207886 17.0
9.85752964 -707.31445313 47.47658539 13.0
9.89997387 -707.26434326 47.57574463 7.0
9.96044159 -707.24072266 47.62575531 11.0
10.08565998 -707.19561768 47.72172546 15.0
10.10233879 -705.16241455 46.70394135 14.0
11.11428738 -707.23028564 47.7375946 3.0
9.86255169 -705.09783936 46.74639511 10.0
11.43414402 -707.59405518 47.97268677 14.0
9.81872368 -705.06170654 46.79979324 14.0
10.19485188 -707.12359619 47.86771011 16.0
10.19239521 -707.09680176 47.91852951 16.0
9.81891251 -704.59246826 46.68120575 19.0
13.96873569 -710.89038086 49.63784027 14.0
10.177701 -707.07232666 47.96391296 16.0
9.91068459 -704.58557129 46.72848892 11.0
11.09695911 -707.10375977 47.97701263 16.0
13.46199226 -710.24822998 49.44248962 18.0
9.88347054 -704.55126953 46.78196716 14.0
9.84835911 -704.51696777 46.8324585 11.0
13.64402103 -710.54168701 49.6358223 18.0
13.55952358 -710.53222656 49.69165802 18.0
11.31931877 -707.39471436 48.34952545 16.0
10.20171642 -705.31378174 47.42308044 18.0
13.12467098 -710.18133545 49.70410156 9.0
13.29491329 -710.50653076 49.85882187 14.0
9.90424156 -705.2401123 47.47830963 5.0
13.09550476 -710.16253662 49.75253677 13.0
9.83788872 -705.20367432 47.52778625 2.0
12.99269867 -709.45843506 49.44506454 17.0
13.04072952 -710.14788818 49.80270004 11.0
9.82535362 -705.17401123 47.57950211 2.0
13.20570755 -709.76293945 49.63877487 17.0
12.73723507 -710.15960693 49.89648056 6.0
13.32125378 -710.43884277 49.98207855 1.0
9.79918098 -705.14202881 47.63162613 2.0
12.86184883 -709.77160645 49.73575592 14.0
12.9204483 -710.11669922 49.91095734 6.0
9.7531271 -705.1083374 47.68138123 2.0
12.82113552 -709.75396729 49.78412247 17.0
13.0308733 -710.08355713 49.93418503 15.0
9.74868965 -705.08129883 47.73019028 2.0
9.98331547 -704.68817139 47.54609299 14.0
9.72468472 -705.05102539 47.77964401 3.0
12.80459785 -709.36218262 49.68644333 19.0
12.61231995 -709.72924805 49.90230942 5.0
13.29467583 -710.35900879 50.15340805 0.0
9.71341038 -705.01940918 47.83490753 2.0
12.65337276 -709.70153809 49.94351959 5.0
13.30597687 -710.33453369 50.19754028 2.0
9.96205044 -704.628479 47.64871979 14.0
12.63723469 -709.68005371 49.99150467 7.0
13.31516933 -710.31164551 50.23947906 6.0
9.92320728 -704.59320068 47.70091629 12.0
9.74391174 -704.96832275 47.93749619 13.0
12.63305092 -709.65759277 50.03757095 7.0
12.94511604 -709.98254395 50.16875839 13.0
9.88456535 -704.55780029 47.75333405 10.0
12.66172791 -709.6350708 50.07265854 7.0
9.82962227 -704.5223999 47.80044174 8.0
12.65943623 -709.61376953 50.11575317 9.0
13.06321239 -709.92999268 50.22811508 5.0
12.65371513 -709.59143066 50.16217804 9.0
12.71683407 -709.56378174 50.19618607 13.0
10.8309412 -710.10345459 50.74703979 4.0
10.2382021 -705.32244873 48.37494659 16.0
12.79378891 -709.53527832 50.22734833 5.0
10.83214378 -710.07818604 50.79737473 8.0
13.32880306 -710.5322876 50.67570114 17.0
9.87040043 -705.23913574 48.44683456 4.0
10.88582897 -710.04943848 50.83438492 8.0
13.2418108 -710.52398682 50.73633957 4.0
9.88150024 -705.2144165 48.4948082 4.0
12.85917282 -709.84088135 50.48626328 6.0
13.22466469 -710.50592041 50.78187561 4.0
9.8562336 -705.18060303 48.5514183 4.0
12.79212475 -709.82330322 50.54774094 7.0
13.21425152 -710.484375 50.83125305 4.0
9.88933086 -705.15936279 48.59781265 14.0
12.73423672 -709.80737305 50.60240936 6.0
13.17614555 -710.46905518 50.88183975 4.0
12.72181034 -709.78588867 50.65061951 6.0
13.02345181 -710.11157227 50.77389145 6.0
13.15600586 -710.45001221 50.9311409 4.0
12.72124481 -709.7633667 50.69644165 6.0
13.17466259 -710.42578125 50.97151566 4.0
9.97509289 -704.68017578 48.52672577 4.0
11.48156166 -707.58337402 49.8073349 17.0
12.73208714 -709.74108887 50.7371788 6.0
13.17564964 -710.4052124 51.01339722 5.0
11.43375397 -707.55767822 49.8600769 16.0
12.71383953 -709.72137451 50.78421021 6.0
13.14589214 -710.38861084 51.06267929 4.0
11.37081623 -707.52978516 49.91827774 19.0
11.88519001 -707.91717529 50.03318024 7.0
12.70398808 -709.69958496 50.83223724 6.0
13.10709476 -710.37182617 51.11700439 4.0
11.6960907 -707.8883667 50.11216736 2.0
12.69430161 -709.67773438 50.88033676 6.0
13.11090183 -710.3494873 51.16115952 4.0
11.23672581 -707.85412598 50.23498917 6.0
12.69403172 -709.65643311 50.9237175 6.0
12.97589207 -709.98797607 51.04786301 8.0
13.15872002 -710.32299805 51.19179916 9.0
11.08117008 -707.05780029 49.90909958 6.0
11.22236443 -707.82678223 50.28976822 6.0
12.68125534 -709.63348389 50.97541809 8.0
13.15941238 -710.29992676 51.23933029 11.0
10.78527927 -707.0145874 49.99783707 13.0
11.21252346 -707.80401611 50.33515549 4.0
12.6671896 -709.61456299 51.01939392 8.0
12.88127422 -709.95452881 51.15895081 4.0
13.09529877 -710.28857422 51.29535294 6.0
10.74723721 -706.98547363 50.0541687 16.0
11.01311493 -707.38818359 50.21635056 7.0
11.73151684 -707.79296875 50.29296494 7.0
12.66785622 -709.59179688 51.06549835 11.0
12.90508556 -709.92993164 51.19893646 11.0
13.0785284 -710.26879883 51.34498596 6.0
10.87078953 -707.3550415 50.29034424 4.0
11.14823341 -707.75109863 50.4458847 6.0
12.86137772 -709.9119873 51.2555275 9.0
13.06385136 -710.2487793 51.39422607 9.0
10.95912933 -707.33337402 50.32568359 4.0
11.16555977 -707.72595215 50.4925766 6.0
12.85071182 -709.89074707 51.3041687 6.0
13.05895519 -710.22747803 51.4410553 9.0
11.45881081 -707.33374023 50.28906631 7.0
11.11620808 -707.69873047 50.55156326 6.0
12.8266983 -709.87072754 51.35629654 6.0
13.06190395 -710.20532227 51.48590088 9.0
11.18463898 -707.29486084 50.38352966 11.0
11.10579014 -707.6741333 50.60062027 7.0
12.83514023 -709.84893799 51.39761734 6.0
13.05679703 -710.18536377 51.53025436 9.0
11.1352787 -706.88525391 50.2365303 8.0
10.89910412 -707.25463867 50.48148346 8.0
12.80127811 -709.83105469 51.4498558 6.0
13.01728344 -710.16931152 51.58395767 3.0
11.12177372 -706.85803223 50.28863525 14.0
10.84449863 -707.22521973 50.54199982 8.0
11.07230568 -707.62280273 50.70443344 6.0
12.80669785 -709.8081665 51.49482346 7.0
13.0398798 -710.14483643 51.62372971 4.0
11.18114567 -706.83654785 50.32822418 13.0
10.85688972 -707.19952393 50.59051514 8.0
11.06104565 -707.59649658 50.75696945 5.0
12.79107475 -709.78723145 51.54536819 7.0
10.95917034 -707.56811523 50.82461548 6.0
12.78468704 -709.76672363 51.59086609 7.0
10.83508587 -707.14532471 50.69636154 10.0
10.96071529 -707.54058838 50.87804794 6.0
12.77960205 -709.74346924 51.64159775 7.0
10.00573826 -705.03033447 49.82286072 14.0
10.80617714 -707.11859131 50.74992752 12.0
11.9214592 -707.92449951 50.92568207 5.0
12.77160358 -709.72302246 51.68772125 6.0
10.75394726 -707.09020996 50.80824661 15.0
11.25723743 -707.88684082 51.11567688 6.0
12.74453259 -709.70422363 51.73918152 7.0
10.76263237 -707.06567383 50.85484695 13.0
11.27348137 -707.86315918 51.15942383 6.0
12.74260998 -709.68322754 51.78388214 7.0
10.74670601 -707.03790283 50.9094162 13.0
11.24368572 -707.83691406 51.21635818 6.0
12.72032547 -709.66259766 51.83711624 7.0
10.75053406 -707.01141357 50.96012115 13.0
11.19849873 -707.81011963 51.27700043 6.0
12.72317314 -709.63989258 51.88344574 6.0
11.19710922 -707.78289795 51.33093643 6.0
10.16126442 -705.29455566 50.32484055 4.0
10.92311001 -707.35992432 51.23434448 6.0
10.15740681 -705.26696777 50.37496185 6.0
10.89156914 -707.33343506 51.289711 7.0
11.20378304 -707.73461914 51.42490005 6.0
10.89335155 -707.30865479 51.33779526 8.0
11.1528759 -707.70874023 51.48477173 6.0
11.14885044 -707.68426514 51.53377151 6.0
12.09045506 -708.08331299 51.50442123 18.0
10.57539654 -705.64776611 50.66867447 18.0
10.86190224 -707.25396729 51.44828796 7.0
11.13674545 -707.65643311 51.59082794 6.0
10.86571217 -707.22607422 51.50226212 8.0
11.12485695 -707.62860107 51.64798355 6.0
10.84527588 -707.20288086 51.5498085 8.0
11.11209774 -707.60668945 51.6934166 6.0
12.39643478 -708.38061523 51.76234436 18.0
10.8253727 -707.17504883 51.60655975 8.0
11.07075024 -707.57904053 51.75519943 6.0
10.46128178 -705.5222168 50.89284515 18.0
10.82314777 -707.14819336 51.65922928 7.0
11.05095387 -707.55218506 51.81184006 6.0
10.45084095 -705.49395752 50.94428253 18.0
10.77376652 -707.11993408 51.7204361 8.0
11.97461224 -707.9375 51.82260513 15.0
12.32252884 -708.31079102 51.92485046 17.0
10.79987717 -707.09313965 51.7694931 7.0
11.35500336 -707.89831543 52.04220581 5.0
12.31468582 -708.28552246 51.97853851 17.0
10.75257397 -707.06164551 51.83685303 7.0
10.71659756 -707.03540039 51.89240646 8.0
10.68830204 -707.00646973 51.95246887 8.0
10.87107086 -706.99511719 51.95205688 18.0
12.84959507 -709.51434326 53.07341385 7.0
12.49235058 -708.69940186 52.99258041 17.0
11.94906139 -707.8269043 53.02085114 17.0
10.82240486 -707.74639893 53.50492096 8.0
11.53105068 -707.35211182 53.10411453 6.0
11.69347572 -707.74725342 53.2573204 1.0
11.74265671 -707.67254639 53.39788055 3.0
11.70307064 -707.62164307 53.51448059 3.0
10.82908726 -707.1307373 53.71356201 16.0
11.37773132 -707.13641357 53.57746124 4.0
12.4484396 -708.71130371 54.00582123 5.0
10.80805779 -707.07318115 53.83573151 15.0
11.98888969 -707.9185791 53.82548141 9.0
12.48448944 -708.68695068 54.04307556 3.0
10.82247162 -707.04827881 53.88315964 15.0
12.49740124 -708.66448975 54.08664322 3.0
12.48166847 -708.644104 54.13898087 3.0
11.12271595 -707.01556396 53.88175583 19.0
12.4452877 -708.61993408 54.20928574 5.0
13.62315083 -708.10906982 53.81326294 3.0
13.68805885 -708.08599854 53.83781052 3.0
11.32233715 -707.22094727 54.45674896 18.0
13.70308399 -708.06500244 53.87760925 6.0
13.73950958 -708.04309082 53.91111374 6.0
13.75110531 -708.02209473 53.95237732 6.0
13.77200127 -708.00128174 53.98962784 6.0
13.81057644 -707.97955322 54.02199936 6.0
13.80279446 -707.95562744 54.07767105 6.0
13.72909546 -707.93286133 54.15708542 6.0
11.4546175 -707.42370605 55.0644722 15.0
11.7636385 -707.38580322 56.15662766 16.0
11.84810925 -707.7779541 56.39287949 1.0
12.1103487 -707.95037842 57.06551361 17.0
14.72122097 -712.57110596 45.09980774 3.0
14.70889568 -712.55401611 45.13411331 3.0
14.70972633 -712.52856445 45.17740631 3.0
14.69060612 -712.51092529 45.21561432 3.0
14.14859009 -711.68365479 45.36894608 18.0
14.09997272 -711.559021 45.60895538 19.0
14.1063385 -711.53436279 45.65120316 19.0
14.08769703 -711.51580811 45.69099045 19.0
14.08518791 -711.49468994 45.72988892 19.0
13.67183876 -710.89196777 45.38811493 17.0
14.07016373 -711.47393799 45.77252579 19.0
14.0383358 -711.45849609 45.81129074 18.0
13.26592159 -710.24078369 45.07181931 16.0
13.25180721 -710.22094727 45.1113739 16.0
13.97647095 -711.43109131 45.88201141 19.0
13.20400429 -710.13348389 45.2838707 16.0
12.95611477 -709.80047607 45.11856842 7.0
13.21218395 -710.11047363 45.32609558 2.0
12.94114876 -709.78161621 45.15608597 6.0
12.93279934 -709.75787354 45.2022934 6.0
12.94130039 -709.73486328 45.24521637 3.0
12.91791439 -709.71429443 45.28706741 13.0
13.86484623 -711.09655762 46.53131485 16.0
13.76357269 -711.07525635 46.60593796 15.0
11.88832188 -708.03533936 45.06322479 8.0
11.85972691 -708.01599121 45.09853745 17.0
13.19058228 -710.3225708 46.57012558 10.0
13.12049007 -710.3104248 46.61097717 11.0
13.77749062 -710.87243652 46.97637558 19.0
11.57778835 -707.54925537 45.06671143 13.0
13.09002399 -710.29205322 46.65339661 18.0
13.06984043 -710.27337646 46.69369125 8.0
13.1664257 -710.23712158 46.73707199 2.0
11.54960346 -707.47900391 45.20083618 9.0
12.90055084 -709.90710449 46.59445572 12.0
13.06912994 -710.22869873 46.77801132 1.0
11.50518608 -707.45391846 45.24370956 5.0
12.8367815 -709.89202881 46.63635254 18.0
12.96599579 -710.22094727 46.81933594 1.0
11.2812891 -707.04968262 45.06637192 11.0
11.49722672 -707.43231201 45.28496933 2.0
12.94455719 -710.20361328 46.85749054 1.0
11.50056648 -707.40661621 45.33581161 2.0
12.78720665 -709.85308838 46.72053146 4.0
12.95024109 -710.17828369 46.90387344 1.0
12.81785965 -709.480896 46.58309937 13.0
12.87882233 -709.81994629 46.76424026 3.0
12.9466362 -710.15704346 46.9449501 1.0
12.63136196 -709.47790527 46.61861038 10.0
12.77210712 -709.81115723 46.80328751 1.0
12.91543961 -710.13970947 46.98575211 1.0
12.63150501 -709.45318604 46.66576767 12.0
12.70477295 -709.7946167 46.84880447 1.0
12.92356014 -710.11413574 47.03215027 1.0
10.94858074 -706.52642822 45.07031631 9.0
12.68394947 -709.42608643 46.70906448 17.0
12.69953442 -709.77331543 46.89043045 1.0
12.90450764 -710.09503174 47.07321167 1.0
12.68449593 -709.75311279 46.93194199 1.0
12.68113804 -709.72888184 46.97885895 1.0
12.6504755 -709.71044922 47.0203476 1.0
12.63152695 -709.68792725 47.06727219 1.0
10.5995388 -705.98345947 45.06932449 10.0
12.58339405 -709.67272949 47.10635757 1.0
12.58078671 -709.64959717 47.1509285 1.0
12.21275616 -708.59332275 46.64217377 18.0
12.52649498 -709.63085938 47.19825745 1.0
12.88285351 -709.93792725 47.37709808 11.0
12.54831219 -709.60778809 47.2375946 1.0
9.91568756 -710.29956055 47.46256638 14.0
13.48466682 -710.51287842 47.75577164 17.0
10.00230312 -710.25994873 47.51560593 10.0
10.23126316 -705.41998291 45.05928802 10.0
10.0220747 -710.23364258 47.5605278 6.0
10.21547222 -705.39520264 45.10229874 14.0
10.69053745 -710.12347412 47.59609222 7.0
10.18575668 -705.36560059 45.14987946 14.0
10.17396927 -705.3381958 45.1994133 19.0
10.86943436 -710.04980469 47.69002533 7.0
10.1623497 -705.31072998 45.24900436 19.0
10.93533897 -710.01623535 47.7370224 5.0
13.1730175 -710.43170166 48.0230217 8.0
9.89342117 -704.83459473 45.05792618 4.0
10.96172047 -709.98754883 47.78501892 7.0
12.99556065 -710.090271 47.89516449 10.0
9.86641598 -704.80413818 45.10651016 14.0
11.57386494 -707.67279053 46.65016556 16.0
11.0142107 -709.95880127 47.82618713 7.0
12.93917847 -710.07800293 47.93618774 5.0
9.85152054 -704.77856445 45.15039444 14.0
11.48679924 -707.64770508 46.69503021 12.0
11.06671429 -709.92730713 47.87282181 7.0
9.83466721 -704.74951172 45.2001915 4.0
12.74124146 -709.70898438 47.8514061 8.0
9.75897503 -704.71112061 45.24433899 3.0
9.77388954 -704.68530273 45.30046844 3.0
10.04088593 -705.13922119 45.54006577 19.0
11.46847725 -707.57531738 46.83383942 6.0
12.30127907 -709.71386719 47.95770264 13.0
11.18492126 -707.17041016 46.68060303 11.0
12.27306366 -709.69342041 48.00439453 13.0
9.76307297 -704.63336182 45.39665222 1.0
11.14863396 -707.14562988 46.7249794 16.0
11.30571842 -707.52526855 46.92366028 16.0
12.22714233 -709.67626953 48.04949188 12.0
12.24091244 -709.65112305 48.09423828 12.0
11.0664959 -707.09399414 46.81692505 6.0
11.02267551 -707.06573486 46.86743927 14.0
10.98498821 -707.04046631 46.91255569 15.0
10.97944641 -707.01501465 46.96105957 19.0
10.72084332 -706.15380859 46.69869995 19.0
11.21294594 -707.27880859 47.39399338 8.0
9.95693874 -707.21881104 47.45881271 13.0
9.99856853 -707.19335938 47.50937271 15.0
11.09759903 -707.20153809 47.5376091 4.0
10.14814281 -707.14648438 47.6053009 11.0
13.30754566 -710.2769165 49.11278152 15.0
10.19623756 -707.12164307 47.65488434 11.0
13.30547523 -710.25524902 49.15597534 16.0
10.24049473 -707.09680176 47.70433044 11.0
10.06302929 -705.05200195 46.70861435 18.0
10.28690815 -707.07208252 47.75348663 12.0
9.83370686 -704.9956665 46.74866486 15.0
10.28122902 -707.04858398 47.79823303 14.0
10.38080215 -706.99993896 47.89540863 14.0
9.75501251 -704.49420166 46.67218018 19.0
9.77731037 -704.90576172 46.90208817 5.0
13.38788319 -710.11425781 49.39748383 18.0
9.77603149 -704.47033691 46.72416687 14.0
9.7400465 -704.43676758 46.77494431 12.0
13.27107334 -710.43640137 49.6796608 14.0
13.23696423 -710.42138672 49.72584152 16.0
9.83381557 -705.21875 47.31748962 4.0
9.81005001 -705.18829346 47.36923981 2.0
11.44691944 -707.64044189 48.52252579 16.0
13.03283691 -710.05743408 49.66141891 9.0
9.85980988 -705.16748047 47.42012787 12.0
13.01489353 -710.03771973 49.70818329 14.0
9.81804085 -705.13769531 47.46618271 4.0
12.99665642 -710.02056885 49.74992752 12.0
9.72346497 -705.09735107 47.51950073 4.0
9.72221088 -705.06951904 47.57135391 4.0
12.76011467 -709.6519165 49.69032288 12.0
9.85434341 -704.65093994 47.4016304 13.0
9.74064541 -705.04602051 47.61971283 4.0
12.73068619 -709.63391113 49.73699188 15.0
12.65829372 -710.00012207 49.93595123 12.0
9.71032906 -705.01251221 47.67536926 4.0
12.69014359 -709.61444092 49.79088211 4.0
12.60232544 -709.98352051 49.99319077 10.0
13.23939228 -710.24890137 50.0685997 4.0
9.70335579 -704.98535156 47.72442245 4.0
12.62372208 -709.60028076 49.84387207 6.0
12.58902645 -709.96386719 50.03812408 10.0
9.95828152 -704.58666992 47.55079269 16.0
12.63402843 -709.57775879 49.88474655 10.0
12.59150696 -709.94213867 50.08041 6.0
13.21279049 -710.21191406 50.15578842 1.0
9.89437199 -704.55010986 47.60042953 14.0
13.23664761 -710.18786621 50.19255447 15.0
9.85499191 -704.51422119 47.6558342 13.0
9.81119156 -704.48071289 47.70553207 13.0
12.53824806 -708.80651855 49.65920258 13.0
12.65848064 -709.50842285 50.0136795 13.0
10.81719208 -710.09667969 50.53673935 1.0
9.78369808 -704.44812012 47.75800705 14.0
12.5316906 -708.78387451 49.70560074 17.0
12.64610291 -709.48699951 50.06108475 16.0
9.74063492 -704.41278076 47.81116486 15.0
10.88567734 -710.03826904 50.62463379 7.0
12.98093987 -710.13775635 50.41876602 1.0
9.87999344 -705.23065186 48.2857933 2.0
10.92269897 -710.01031494 50.66489029 5.0
9.85644054 -705.20141602 48.33589172 3.0
12.73684311 -709.77008057 50.36315918 4.0
9.82949924 -705.17010498 48.38939667 3.0
12.74072838 -709.74713135 50.4077034 7.0
9.8027544 -705.13867188 48.4430542 3.0
12.74476147 -709.72424316 50.45223999 9.0
9.78411388 -705.10821533 48.49633026 3.0
11.97143745 -707.94573975 49.68251801 19.0
12.713871 -709.7053833 50.50379944 8.0
9.78147697 -705.07983398 48.54859924 3.0
12.68510342 -709.68621826 50.55514526 7.0
10.01673508 -704.6807251 48.36332703 12.0
11.64364338 -707.902771 49.82016754 9.0
12.67910671 -709.66699219 50.59662628 7.0
11.28482628 -707.88031006 49.92290115 4.0
12.66234016 -709.6463623 50.64580154 8.0
11.40164852 -707.4788208 49.75587082 15.0
11.24068451 -707.85546875 49.97872162 6.0
12.66324902 -709.6237793 50.69137955 7.0
9.95893669 -704.58758545 48.52167892 18.0
11.24415588 -707.8303833 50.02729416 6.0
12.63708591 -709.60412598 50.74279404 8.0
9.91184521 -704.55169678 48.57675934 18.0
11.35914612 -707.42791748 49.85942841 13.0
11.19447517 -707.80535889 50.08444214 6.0
12.81930351 -709.92193604 50.93868637 7.0
11.35719585 -707.02783203 49.70744324 17.0
11.09322166 -707.78167725 50.14741135 6.0
12.81441975 -709.90167236 50.98273087 6.0
11.11582088 -706.99224854 49.79091644 19.0
10.90789223 -707.3692627 50.02410507 6.0
11.17418861 -707.75634766 50.18362427 6.0
12.80624199 -709.8805542 51.03030777 7.0
11.07203579 -706.96618652 49.84382248 17.0
10.82475185 -707.34307861 50.08433914 5.0
11.23505306 -707.73272705 50.21993256 6.0
12.08093929 -708.09832764 50.2689209 18.0
12.80358028 -709.85998535 51.07398605 5.0
10.78379345 -707.31616211 50.14125443 4.0
11.13879871 -707.70715332 50.28578186 6.0
12.80730152 -709.83740234 51.1189003 5.0
10.93000126 -707.29547119 50.16498184 4.0
11.66297913 -707.68585205 50.24139404 5.0
12.80106163 -709.81726074 51.16355515 9.0
11.09141254 -706.88989258 49.98962402 7.0
10.89382458 -707.26715088 50.22408676 6.0
12.84027863 -709.7890625 51.20259857 15.0
10.98299599 -707.24536133 50.25642776 6.0
11.07153702 -707.63208008 50.44408417 4.0
12.35340309 -708.36077881 50.59322357 19.0
12.77646255 -709.77593994 51.26151657 7.0
11.14909172 -707.22601318 50.27521896 3.0
11.06815052 -707.60803223 50.49176025 6.0
12.75718021 -709.75732422 51.30971146 8.0
10.96854973 -707.58300781 50.55724716 6.0
12.75732136 -709.7364502 51.35316467 7.0
10.82679272 -707.16436768 50.43149948 7.0
12.73357391 -709.71569824 51.40821075 7.0
10.8141346 -707.1394043 50.48147202 9.0
11.34295845 -707.53656006 50.58697128 12.0
11.27589798 -707.91760254 50.80123138 5.0
12.26541328 -708.27246094 50.79373169 19.0
12.71284676 -709.69714355 51.45721054 10.0
10.80672932 -707.11151123 50.53658676 10.0
11.22325706 -707.89141846 50.86469269 5.0
12.69909859 -709.6751709 51.5100441 9.0
11.23296356 -707.86621094 50.91268921 5.0
12.6830864 -709.65472412 51.56087494 9.0
11.2481184 -707.84240723 50.95660782 6.0
12.20499802 -708.20324707 50.94886017 18.0
12.68015766 -709.6340332 51.60562897 10.0
10.71790123 -707.03259277 50.70016861 13.0
11.1910162 -707.81884766 51.01580811 5.0
12.69657993 -709.61120605 51.64525604 11.0
10.72049046 -707.00634766 50.7509346 15.0
11.14255524 -707.79364014 51.07647324 5.0
10.28130722 -705.35473633 50.04300308 5.0
10.96341896 -707.3770752 50.96299362 6.0
11.11839199 -707.76678467 51.13515854 6.0
10.15630817 -705.31256104 50.1110878 1.0
10.90886116 -707.35150146 51.0222702 6.0
11.14593124 -707.74291992 51.17671204 5.0
10.87212563 -707.32623291 51.07811356 6.0
11.15602493 -707.71905518 51.22206497 5.0
10.89293575 -707.30078125 51.12488937 6.0
11.11032772 -707.69348145 51.28298187 5.0
10.13359928 -705.23022461 50.26270294 1.0
10.88131046 -707.27746582 51.1726265 6.0
10.11471653 -705.19781494 50.32146454 5.0
10.91090775 -707.25073242 51.22048187 6.0
11.10664463 -707.6439209 51.38251495 5.0
10.88143921 -707.22387695 51.27836227 6.0
11.1044178 -707.6184082 51.43398285 5.0
11.07706928 -707.59259033 51.49147034 5.0
10.85947514 -707.17248535 51.383358 9.0
11.02200317 -707.56787109 51.55279541 5.0
10.82406139 -707.14666748 51.44015121 9.0
11.05463505 -707.54406738 51.59326935 6.0
11.92825317 -707.9276123 51.57945633 4.0
10.82388973 -707.12194824 51.48897552 6.0
11.2745018 -707.90991211 51.79278946 7.0
10.81683064 -707.09539795 51.54254913 6.0
11.26339054 -707.88482666 51.84665298 7.0
10.77377129 -707.065979 51.6078949 8.0
11.26287556 -707.8581543 51.90089798 7.0
10.75665855 -707.04046631 51.6611557 9.0
11.22627449 -707.83453369 51.9587326 7.0
10.72731209 -707.01593018 51.71447372 9.0
11.34179592 -707.81195068 51.97324753 10.0
10.96625233 -707.38934326 51.9223938 7.0
10.91595364 -707.36529541 51.98145294 6.0
11.09867096 -707.3449707 51.98250198 11.0
12.42970657 -708.64312744 52.84465408 19.0
12.41710281 -708.59899902 52.94524765 16.0
10.72772503 -707.68145752 53.46018982 10.0
11.4506197 -707.26647949 53.06002808 7.0
11.67607021 -707.66064453 53.19244003 2.0
11.40473461 -707.21539307 53.17786789 1.0
10.84069633 -707.12188721 53.52459717 10.0
11.56879425 -707.53881836 53.48381424 6.0
12.4893322 -708.68267822 53.76081467 3.0
10.82361126 -707.09307861 53.58882904 14.0
12.48424149 -708.65869141 53.81693268 4.0
10.84534931 -707.06726074 53.63648605 14.0
12.38925171 -708.64074707 53.9058342 15.0
11.32809448 -707.06079102 53.51868057 3.0
11.4296236 -707.41125488 53.79896164 7.0
12.3759594 -708.5067749 54.21372986 16.0
12.43526268 -708.47973633 54.24443436 7.0
12.65812588 -708.45141602 54.19390488 3.0
12.06334496 -708.05792236 54.28660202 16.0
12.91695786 -708.41821289 54.13612747 2.0
12.94478798 -708.39331055 54.17832947 2.0
11.52342892 -707.61376953 54.40298462 13.0
13.58070374 -707.98760986 53.76065063 2.0
13.01107407 -708.36962891 54.19797134 3.0
13.67449188 -707.96307373 53.77310181 2.0
13.05747223 -708.34423828 54.23192215 3.0
13.68888474 -707.94226074 53.81296921 3.0
13.12017918 -708.32098389 54.25260925 2.0
13.70973778 -707.92266846 53.84722137 3.0
13.17270279 -708.29949951 54.27451706 1.0
13.74194241 -707.90039063 53.88234329 2.0
13.71263027 -707.88000488 53.94108582 3.0
13.75899506 -707.85644531 53.97296524 7.0
11.44123363 -707.43756104 54.81987 9.0
13.74394989 -707.83459473 54.02871704 2.0
12.00904465 -707.7678833 56.10995483 6.0
13.81756115 -711.1630249 45.38942337 18.0
13.4359026 -710.5201416 45.07800674 16.0
13.43446827 -710.49804688 45.11893463 18.0
13.42148685 -710.47827148 45.15839005 17.0
13.41001892 -710.45678711 45.20062256 18.0
13.16062355 -710.0880127 45.12422943 9.0
13.14424419 -710.06842041 45.16386795 5.0
13.12941933 -710.04724121 45.20633316 4.0
13.09616947 -710.03186035 45.24148178 4.0
13.10657024 -710.00500488 45.2895546 4.0
12.91519833 -709.66418457 45.13212967 18.0
13.10392094 -709.98175049 45.33347321 3.0
13.9560957 -711.32385254 46.60995483 17.0
13.74632645 -710.96832275 46.55190277 14.0
13.51601601 -710.56842041 46.57068253 18.0
11.80429554 -707.89208984 45.11332703 16.0
13.09840679 -710.190979 46.5901413 14.0
13.44693851 -710.46875 46.77846146 18.0
13.0441494 -710.1786499 46.62932205 17.0
11.54283237 -707.43389893 45.07594299 8.0
12.99442387 -710.14056396 46.71516037 5.0
11.46952724 -707.38269043 45.16908646 6.0
13.0341711 -709.76300049 46.58268356 15.0
13.10541439 -710.09661865 46.76401901 3.0
11.45659256 -707.35968018 45.21281815 6.0
12.83593369 -709.77099609 46.61735153 12.0
12.98661423 -710.09515381 46.80233002 1.0
11.45174885 -707.33654785 45.25743484 3.0
12.95855904 -710.07794189 46.84290314 1.0
13.13332272 -710.39416504 47.02584076 9.0
11.20454121 -706.93493652 45.08021164 12.0
11.42317104 -707.3135376 45.29961395 3.0
12.91878891 -710.06268311 46.88341522 1.0
11.43822098 -707.28894043 45.34909439 3.0
12.93015385 -710.03741455 46.92737961 3.0
13.07168007 -710.36071777 47.10960388 1.0
11.40792847 -707.26580811 45.39123154 11.0
14.51806641 -708.81347656 46.49851227 10.0
12.74966431 -709.34442139 46.60227585 14.0
12.8167057 -709.6842041 46.78540802 4.0
13.06770134 -710.33959961 47.15042496 1.0
14.47633839 -708.79571533 46.53873062 5.0
12.66786003 -709.32977295 46.64670181 11.0
12.65990257 -709.68200684 46.8290863 1.0
13.03978348 -710.32019043 47.19642639 1.0
12.54210758 -708.9708252 46.50201797 15.0
12.70572853 -709.30303955 46.68959427 15.0
12.64223766 -709.66235352 46.87065125 1.0
13.04590511 -710.29718018 47.23726654 2.0
13.53466129 -710.54644775 47.41113281 19.0
10.91794491 -706.41973877 45.09064102 6.0
11.32903385 -707.19171143 45.52795792 19.0
12.51828194 -708.949646 46.54597092 11.0
12.58882999 -709.64630127 46.91441345 1.0
12.58131981 -709.62512207 46.95633698 1.0
12.56007195 -709.60583496 46.99816132 1.0
13.4871912 -710.4909668 47.53358459 18.0
12.52071476 -709.58618164 47.04523468 1.0
12.85437489 -709.88922119 47.22869492 8.0
13.47783661 -710.46893311 47.5785141 19.0
12.60655689 -709.55090332 47.09030914 5.0
10.55715752 -705.88549805 45.0869751 7.0
12.46354008 -708.84130859 46.76091003 10.0
12.82462883 -709.84997559 47.31158447 14.0
9.86474419 -710.28271484 47.39245224 10.0
9.90685177 -710.2489624 47.44358826 12.0
9.96119213 -710.21508789 47.49124908 10.0
10.83008862 -710.05609131 47.52804184 4.0
13.17295647 -710.39520264 47.83972931 14.0
10.21926785 -705.32775879 45.09441376 7.0
12.66341877 -709.40557861 47.35148239 19.0
10.85507774 -710.02642822 47.57666397 9.0
10.82697582 -710.00616455 47.62361526 9.0
12.92758942 -710.0458374 47.75172043 9.0
10.83053112 -709.97979736 47.67271423 9.0
10.98870087 -709.93255615 47.71414948 6.0
11.02821159 -709.90124512 47.76159668 6.0
9.82958603 -704.75177002 45.07725143 7.0
11.08372498 -709.86785889 47.80825424 6.0
9.80987167 -704.72277832 45.12691879 14.0
12.28136444 -709.67419434 47.81051254 7.0
9.79229927 -704.69396973 45.1768837 14.0
11.42962551 -707.52801514 46.71505737 14.0
12.29987526 -709.65063477 47.84976196 13.0
9.77113152 -704.66772461 45.22047043 5.0
9.75774384 -704.63775635 45.27402878 3.0
9.6914711 -704.60528564 45.31357193 3.0
11.41591835 -707.45556641 46.85456467 4.0
9.69230938 -704.57861328 45.3656044 3.0
11.15718555 -707.05633545 46.70178986 14.0
11.10435009 -707.0291748 46.75166702 16.0
11.01730061 -706.98052979 46.84115982 14.0
11.03095818 -706.95556641 46.88988876 19.0
11.16487026 -707.1619873 47.42004395 14.0
10.07593822 -707.13098145 47.48428726 17.0
12.52656555 -708.89849854 48.35761642 19.0
10.141078 -707.10491943 47.53403473 19.0
10.17838669 -707.07879639 47.5840683 19.0
9.77449226 -704.9074707 46.7803154 16.0
9.74789906 -704.82568359 46.92879486 4.0
11.94243336 -707.96893311 48.51708603 18.0
9.86170769 -705.19348145 47.24674606 2.0
9.85094452 -705.16516113 47.29829407 2.0
13.08360863 -709.59539795 49.41496658 16.0
9.82405186 -705.13824463 47.34400558 2.0
9.79196739 -705.105896 47.39903259 2.0
11.38713837 -707.52008057 48.55320358 18.0
12.97305489 -709.92150879 49.70114899 11.0
9.81728649 -705.08294678 47.44728088 11.0
12.94483757 -709.90509033 49.74710083 14.0
9.72550583 -705.046875 47.49748993 3.0
12.81280136 -709.19372559 49.43671799 16.0
12.90310478 -709.89074707 49.79538345 8.0
9.97102356 -704.6395874 47.33427048 6.0
9.71982956 -705.01715088 47.55252838 3.0
12.96383476 -709.50341797 49.64667511 11.0
12.5947361 -709.91577148 49.89261246 9.0
9.6942358 -704.98669434 47.60502243 3.0
12.69316578 -709.51763916 49.73262024 15.0
12.52239513 -709.90435791 49.9498024 11.0
9.67478657 -704.95684814 47.65750122 3.0
12.66760921 -709.49841309 49.7815361 13.0
12.56525898 -709.87493896 49.98801422 9.0
9.95000839 -704.55645752 47.48514175 18.0
12.65372658 -709.47894287 49.82610321 11.0
12.49691677 -709.86401367 50.04237747 4.0
9.89496994 -704.52294922 47.5344696 16.0
12.68989754 -709.09576416 49.67518234 18.0
12.64977264 -709.45806885 49.8691597 13.0
9.85058689 -704.48754883 47.58990479 14.0
10.82225227 -710.07177734 50.42887115 2.0
9.81373978 -704.45635986 47.63933945 14.0
12.94198608 -709.73016357 50.09687424 3.0
9.78133392 -704.42401123 47.69189072 14.0
10.90788174 -710.01049805 50.51071167 6.0
9.73692894 -704.39141846 47.74193954 14.0
10.16412354 -705.25732422 48.15143967 4.0
10.56683445 -705.69055176 48.33617401 19.0
12.90607357 -709.69238281 50.18984985 2.0
9.70423889 -704.36199951 47.78878784 14.0
9.87696075 -705.20330811 48.21201706 4.0
10.55762386 -705.66644287 48.380867 17.0
12.90834713 -709.67242432 50.22881317 15.0
9.66877174 -704.32720947 47.84508896 14.0
9.61169052 -704.73321533 48.06498718 16.0
9.84128857 -705.17041016 48.26882553 3.0
12.69372463 -709.68005371 50.3167572 9.0
9.84284782 -705.14459229 48.31752777 3.0
10.51313496 -705.60968018 48.48405838 19.0
12.28610706 -708.25714111 49.66988754 16.0
12.68494701 -709.66009521 50.36106873 6.0
9.82345486 -705.11328125 48.3736496 3.0
10.47959232 -705.57861328 48.53965378 19.0
12.66527367 -709.63916016 50.41292572 8.0
9.80551147 -705.08526611 48.42370224 3.0
10.4574604 -705.55157471 48.58867264 17.0
12.24962044 -708.21234131 49.76764679 19.0
12.65096378 -709.61999512 50.45853043 9.0
9.77980328 -705.05627441 48.47438812 3.0
10.46130753 -705.52679443 48.63578796 19.0
12.21550083 -708.19207764 49.81646347 19.0
10.02187347 -704.65283203 48.2935257 7.0
9.7443552 -705.02612305 48.52590942 4.0
10.43949795 -705.49963379 48.68498611 19.0
11.67735672 -707.82641602 49.7490654 10.0
12.18745899 -708.17144775 49.86453247 18.0
12.65385342 -709.57720947 50.54369354 10.0
9.75308895 -704.99926758 48.5775032 4.0
11.62025356 -707.80377197 49.80535126 13.0
12.15993118 -708.14929199 49.91543198 19.0
11.59695244 -707.7800293 49.85685349 5.0
12.15229416 -708.12609863 49.96327972 19.0
9.98301697 -704.5645752 48.45036316 18.0
11.16484928 -707.7677002 49.97172928 4.0
12.13102436 -708.10357666 50.01346588 19.0
9.94474602 -704.53149414 48.50459671 18.0
11.36728764 -707.35974121 49.79035568 12.0
11.07688332 -707.74499512 50.03483582 5.0
12.10007763 -708.0814209 50.06543732 19.0
9.8943882 -704.49816895 48.55688858 16.0
11.30652809 -707.33654785 49.84519196 12.0
11.15062332 -707.71936035 50.06967926 5.0
12.07679367 -708.06018066 50.11354828 19.0
9.85409832 -704.46612549 48.60870743 18.0
11.0422802 -707.31384277 49.93118286 3.0
11.14748859 -707.69580078 50.11667633 5.0
12.05957222 -708.03863525 50.16076279 16.0
11.20796776 -706.90673828 49.75796509 12.0
10.78717041 -707.28741455 50.02306747 6.0
11.13353729 -707.66955566 50.1713295 5.0
12.04333305 -708.01416016 50.21347427 18.0
11.05271339 -706.87976074 49.82681274 16.0
10.8516407 -707.26312256 50.0603447 6.0
11.25496006 -707.64324951 50.19756699 5.0
11.05245972 -706.85418701 49.87640762 8.0
10.95617104 -707.23748779 50.09389114 6.0
11.19948006 -707.61938477 50.25626755 6.0
11.98850155 -707.97027588 50.3150444 19.0
11.08051682 -706.82775879 49.92468262 17.0
10.88752365 -707.21032715 50.15795898 6.0
11.05404758 -707.59552002 50.33383179 5.0
10.89512634 -707.18615723 50.20396423 6.0
11.60319233 -707.56213379 50.28415298 5.0
10.94380856 -707.16369629 50.24014664 6.0
10.98808289 -707.55041504 50.43660355 5.0
10.86985874 -707.1361084 50.30583572 6.0
10.93986893 -707.52423096 50.49844742 5.0
11.44958591 -707.89544678 50.60583878 5.0
11.29227924 -707.11358643 50.28320313 6.0
11.26957512 -707.87701416 50.69002914 7.0
11.23057938 -707.8548584 50.74443817 7.0
10.816782 -707.05975342 50.46368408 9.0
11.25109005 -707.82928467 50.79010773 7.0
10.78257942 -707.0335083 50.52057266 12.0
11.25411797 -707.80426025 50.83926773 7.0
10.75928402 -707.01031494 50.56970596 10.0
11.16420078 -707.78485107 50.90171051 7.0
11.31572533 -707.37304688 50.7182579 19.0
11.14605904 -707.76031494 50.95561218 7.0
10.95103931 -707.34844971 50.84376144 6.0
11.12671089 -707.73425293 51.01288605 7.0
10.00929928 -704.88983154 49.79003906 11.0
10.33171368 -705.32843018 49.95717621 18.0
10.89882374 -707.3260498 50.89905548 5.0
11.18798447 -707.71044922 51.04421616 7.0
9.79206753 -704.83337402 49.8757515 15.0
10.87206268 -707.29901123 50.95843124 5.0
11.16312218 -707.68450928 51.10278702 7.0
10.8574419 -707.27630615 51.0064888 6.0
11.11718178 -707.66339111 51.15728378 7.0
10.147645 -705.22833252 50.13798523 2.0
10.87941074 -707.25054932 51.05297852 6.0
11.14094448 -707.63769531 51.20256042 7.0
10.88649845 -707.22332764 51.10559082 6.0
11.11083221 -707.6116333 51.2628479 7.0
10.88470364 -707.19909668 51.15413666 6.0
10.86220932 -707.17321777 51.210289 7.0
11.40214348 -707.55761719 51.29430008 14.0
10.09347534 -705.11096191 50.35680389 9.0
10.84968185 -707.14733887 51.26442337 7.0
11.04073811 -707.53845215 51.42845917 5.0
12.26837635 -708.25372314 51.53125763 19.0
10.84254265 -707.1229248 51.31445313 7.0
11.32685471 -707.89678955 51.61361313 6.0
11.29257774 -707.87463379 51.66970062 9.0
10.80409718 -707.07226563 51.42339706 6.0
11.26497078 -707.85076904 51.72733307 9.0
10.79106236 -707.04467773 51.48125839 7.0
11.25955296 -707.82458496 51.78252792 9.0
10.76322079 -707.01983643 51.53664398 9.0
11.24716473 -707.80151367 51.83364105 9.0
10.72584343 -706.99475098 51.59450912 12.0
11.38836098 -707.38769531 51.6403656 15.0
11.2059269 -707.77923584 51.89239502 9.0
10.77177334 -706.96777344 51.63873672 13.0
10.98578358 -707.36376953 51.79532623 7.0
11.19917202 -707.75292969 51.94839478 9.0
10.3739748 -705.3293457 50.9250412 15.0
10.95510292 -707.34283447 51.84572983 7.0
11.20329475 -707.73217773 51.98954391 6.0
10.93525219 -707.3157959 51.90577316 7.0
10.91295242 -707.29016113 51.96359253 7.0
10.89859962 -707.26446533 52.01952744 7.0
9.99468803 -705.12280273 51.32021713 18.0
10.39788914 -705.35198975 51.86530685 5.0
10.75310421 -705.78491211 51.98852921 19.0
10.73602581 -705.75482178 52.04913712 18.0
12.37032509 -708.47644043 52.99760437 18.0
11.38107204 -707.16235352 53.11178207 7.0
11.47604942 -707.50836182 53.39260864 8.0
11.84489632 -707.86682129 53.52682495 3.0
10.83161831 -707.03399658 53.55718613 17.0
11.46851826 -707.43664551 53.54841614 10.0
10.83204365 -707.00476074 53.61852646 17.0
11.00031567 -706.98394775 53.60816956 17.0
11.41181946 -707.38720703 53.67578506 6.0
11.23649406 -706.96154785 53.57939148 9.0
11.37486553 -707.33721924 53.79701233 15.0
10.82783222 -707.11035156 54.49448395 17.0
13.50567245 -707.84741211 53.8206749 1.0
13.48001385 -707.8291626 53.87483978 2.0
13.49702644 -707.8067627 53.91691971 4.0
13.53356838 -707.7824707 53.95355225 4.0
13.59857655 -707.75854492 53.97489929 3.0
11.44456577 -707.39813232 54.73431015 9.0
13.65240765 -707.7376709 53.99503326 9.0
13.8516407 -711.20770264 45.0971489 17.0
13.32995892 -710.31744385 45.2671051 7.0
13.1169939 -709.96759033 45.14726639 6.0
13.08348083 -709.94854736 45.19024277 4.0
13.0874157 -709.92779541 45.22728729 4.0
13.04635143 -709.91015625 45.26956558 4.0
12.85102272 -709.5723877 45.10676193 13.0
13.04553699 -709.88751221 45.31129837 4.0
12.82818413 -709.55200195 45.14901733 19.0
13.05214691 -709.86212158 45.35641479 2.0
12.81135559 -709.53057861 45.19205856 19.0
13.01057816 -709.8203125 45.44334793 17.0
12.97023678 -709.80792236 45.47579575 19.0
12.01488018 -708.25006104 45.12591553 16.0
13.43522835 -710.44854736 46.60394669 17.0
13.17682171 -710.41461182 46.76575851 15.0
13.01053715 -710.07745361 46.61970139 12.0
13.16930199 -710.39398193 46.80627441 10.0
12.94982243 -710.06591797 46.66160202 12.0
11.51779079 -707.32849121 45.10133743 2.0
13.0566864 -710.37298584 46.88838959 0.0
13.03943443 -710.35302734 46.93164444 0.0
11.41633415 -707.28210449 45.18613815 10.0
12.97342491 -709.6416626 46.60877609 19.0
12.93147564 -709.99963379 46.79003525 6.0
13.04381084 -710.32830811 46.97519684 0.0
11.40490341 -707.25909424 45.23022461 6.0
12.76364231 -709.65606689 46.64363861 10.0
13.01932621 -710.31134033 47.01592636 1.0
11.38134956 -707.23486328 45.27591705 6.0
13.01616764 -710.28833008 47.05944061 1.0
11.14489079 -706.83917236 45.09649277 7.0
11.23923206 -707.21661377 45.30403519 6.0
13.02546501 -710.26544189 47.09786606 0.0
11.11925793 -706.81280518 45.14535904 17.0
11.35489368 -707.18731689 45.3667717 6.0
13.02034855 -710.24151611 47.14390564 0.0
11.098382 -706.78924561 45.18908691 17.0
11.36989975 -707.16351318 45.41353989 6.0
12.69042301 -709.22332764 46.63002014 17.0
12.76595879 -709.56335449 46.81545639 3.0
12.97875977 -710.22808838 47.18493271 1.0
12.55425262 -709.57513428 46.85603714 1.0
12.75732327 -709.89471436 47.04387665 1.0
12.99181843 -710.20172119 47.22844315 1.0
11.08004665 -706.73760986 45.28777695 5.0
12.77618027 -709.86602783 47.0907135 1.0
13.02043915 -710.1708374 47.27430725 1.0
10.8345108 -706.32849121 45.1049614 10.0
11.07381725 -706.71539307 45.33024979 19.0
12.72517776 -709.85455322 47.12958908 1.0
12.72295094 -709.83117676 47.17383194 1.0
12.72087288 -709.80780029 47.21807098 1.0
13.18824863 -710.41864014 47.57934189 17.0
12.61149406 -709.09393311 46.89251328 19.0
12.71697521 -709.78479004 47.26232147 1.0
10.52850914 -705.80078125 45.11413193 4.0
10.96073532 -706.59039307 45.56153488 17.0
12.73148441 -709.73620605 47.3479805 15.0
12.92914486 -710.05279541 47.52928543 6.0
10.82406616 -710.05157471 47.42046738 6.0
12.18945217 -709.78741455 47.44041824 9.0
12.14658642 -709.76916504 47.48954391 9.0
12.15133762 -709.74401855 47.53512573 9.0
10.17011833 -705.25128174 45.11769867 4.0
12.53491306 -708.94146729 47.19903564 17.0
12.140481 -709.72155762 47.58106995 11.0
12.24423504 -709.6809082 47.62119675 13.0
12.22595692 -709.66131592 47.66449356 13.0
9.80614853 -704.68127441 45.11742783 4.0
11.53413868 -707.83355713 46.84944534 10.0
9.77614021 -704.65307617 45.16317749 19.0
11.45367908 -707.44354248 46.69846725 17.0
11.50014305 -707.81231689 46.89345551 12.0
11.3439703 -707.42578125 46.73788452 14.0
9.74403191 -704.59625244 45.26383591 7.0
9.72647285 -704.57073975 45.30800247 4.0
9.69904613 -704.54248047 45.35439682 4.0
11.36676407 -707.35174561 46.87863159 5.0
9.68940353 -704.51306152 45.40859985 3.0
11.11047554 -706.95574951 46.72817993 19.0
11.05518532 -706.93115234 46.77539063 16.0
11.18205166 -707.30627441 46.97504425 16.0
11.16905022 -707.28448486 47.01742935 16.0
11.15201283 -707.25836182 47.06835556 16.0
11.08231735 -706.8581543 46.91537857 8.0
11.13524151 -707.23510742 47.11369705 18.0
12.2875309 -709.71148682 48.42905426 6.0
12.29438114 -709.66278076 48.51918793 13.0
10.5789566 -705.95550537 46.74682999 19.0
11.09590054 -707.0625 47.44635773 6.0
10.27659893 -707.05065918 47.51036835 10.0
10.32920837 -707.02355957 47.55973053 12.0
9.63730335 -707.39111328 47.88743591 13.0
11.5113554 -707.69989014 48.01158905 15.0
9.67833805 -707.36419678 47.93496704 13.0
9.70570564 -707.33465576 47.98901367 14.0
11.9359045 -707.99200439 48.274086 18.0
9.65119553 -707.31066895 48.04050446 3.0
9.74248123 -704.84033203 46.80672836 14.0
12.17607498 -708.28839111 48.53606796 18.0
9.84212589 -705.20709229 47.11582184 3.0
9.82242012 -705.17687988 47.1703949 3.0
9.80662155 -705.15002441 47.21899033 3.0
9.81305408 -705.12335205 47.27056122 3.0
9.78792953 -705.0925293 47.32543564 3.0
10.42398357 -705.53900146 47.52632523 19.0
9.73875427 -705.06268311 47.37464905 3.0
10.40858269 -705.51324463 47.57378769 17.0
9.99751377 -704.65563965 47.20755768 6.0
9.71166229 -705.03460693 47.42379761 3.0
9.77437878 -705.01428223 47.47159195 12.0
9.68007565 -704.97857666 47.5251503 3.0
10.32958889 -705.4317627 47.72063828 19.0
9.68754292 -704.95178223 47.57698059 3.0
10.31701565 -705.40435791 47.77140045 17.0
12.83689976 -709.39337158 49.69498062 16.0
10.29464722 -705.3762207 47.82258987 16.0
12.73076057 -709.38775635 49.75598145 19.0
9.87511444 -704.50939941 47.45899582 16.0
12.73780727 -709.36529541 49.79694748 19.0
9.82518768 -704.47790527 47.50834274 15.0
9.79777718 -704.44567871 47.56355286 13.0
10.24430943 -705.29406738 47.97324753 15.0
12.61180973 -708.97821045 49.71694946 19.0
9.75020027 -704.41412354 47.61332321 12.0
9.91958427 -705.24414063 48.03575516 7.0
9.69909573 -704.38043213 47.66648865 13.0
9.90014935 -705.21539307 48.08821487 5.0
9.67228794 -704.34790039 47.72229385 12.0
9.83936024 -705.18170166 48.14595032 3.0
12.38122463 -708.57623291 49.69802094 19.0
9.63717175 -704.31744385 47.77239609 12.0
9.84789371 -705.15661621 48.19421768 3.0
10.51560593 -705.60168457 48.36460876 19.0
9.60589504 -704.28894043 47.8194809 17.0
9.56847477 -704.69763184 48.03848648 9.0
9.83040428 -705.13098145 48.24087524 3.0
10.49596691 -705.57720947 48.41011047 19.0
9.80204678 -705.09960938 48.29742432 3.0
11.97502327 -707.81542969 49.50581741 19.0
