//X Y Z UserData ScanAngleRank NumberOfReturns ReturnNumber GpsTime Intensity Classification
100
718728.54999924 4295403.28999996 118.78700256 255.0 0.0 0.0 32.0 32.0 1.0 1.0 164914.278482 142.0 1.0
718728.27000046 4295402.92000008 119.44200134 255.0 0.0 0.0 32.0 34.0 1.0 1.0 164914.278513 150.0 1.0
718728.19000053 4295402.73000002 119.82099915 255.0 0.0 0.0 32.0 35.0 1.0 1.0 164914.278532 191.0 1.0
718728.0 4295402.52999997 120.13800049 255.0 0.0 0.0 32.0 35.0 1.0 1.0 164914.278543 277.0 1.0
718728.15999985 4295402.54999995 120.18800354 255.0 0.0 0.0 32.0 36.0 1.0 1.0 164914.278551 177.0 1.0
718728.17000008 4295402.48000002 120.35099792 255.0 0.0 0.0 32.0 37.0 1.0 1.0 164914.278562 105.0 1.0
718729.32999992 4295405.40999985 114.51599884 255.0 0.0 0.0 32.0 14.0 1.0 1.0 164914.284811 20.0 1.0
718729.47999954 4295405.42999983 114.56400299 255.0 0.0 0.0 32.0 14.0 1.0 1.0 164914.284822 15.0 1.0
718729.18000031 4295405.05000019 115.21900177 255.0 0.0 0.0 32.0 17.0 1.0 1.0 164914.284883 70.0 1.0
718729.17000008 4295404.96000004 115.42099762 255.0 0.0 0.0 32.0 19.0 1.0 1.0 164914.284902 219.0 1.0
718728.79000092 4295404.19000006 116.88600159 255.0 0.0 0.0 32.0 25.0 1.0 1.0 164914.285021 23.0 1.0
718728.73999977 4295404.11000013 117.03299713 255.0 0.0 0.0 32.0 26.0 1.0 1.0 164914.285032 139.0 1.0
718728.77000046 4295404.07000017 117.13700104 255.0 0.0 0.0 32.0 26.0 1.0 1.0 164914.285044 93.0 1.0
718728.79000092 4295403.98000002 117.3690033 255.0 0.0 0.0 32.0 27.0 1.0 1.0 164914.285063 278.0 1.0
718728.75 4295403.9000001 117.51699829 255.0 0.0 0.0 32.0 28.0 1.0 1.0 164914.28507 328.0 1.0
718728.72999954 4295403.82999992 117.65499878 255.0 0.0 0.0 32.0 28.0 1.0 1.0 164914.285082 246.0 1.0
718728.70000076 4295403.75999999 117.80200195 255.0 0.0 0.0 32.0 29.0 1.0 1.0 164914.285093 351.0 1.0
718728.68000031 4295403.68000007 117.9489975 255.0 0.0 0.0 32.0 29.0 1.0 1.0 164914.285101 350.0 1.0
718728.64999962 4295403.6099999 118.09799957 255.0 0.0 0.0 32.0 30.0 1.0 1.0 164914.285112 410.0 1.0
718728.62000084 4295403.52999997 118.2539978 255.0 0.0 0.0 32.0 30.0 1.0 1.0 164914.285124 217.0 1.0
718728.61000061 4295403.46000004 118.40200043 255.0 0.0 0.0 32.0 31.0 1.0 1.0 164914.285131 258.0 1.0
718728.54000092 4295403.28999996 118.73600006 255.0 0.0 0.0 32.0 32.0 1.0 1.0 164914.28515 203.0 1.0
718728.27000046 4295402.92000008 119.38300323 255.0 0.0 0.0 32.0 34.0 1.0 1.0 164914.285181 157.0 1.0
718728.13999939 4295402.54999995 120.13300323 255.0 0.0 0.0 32.0 36.0 1.0 1.0 164914.285223 213.0 1.0
718728.17000008 4295402.49000001 120.28299713 255.0 0.0 0.0 32.0 36.0 1.0 1.0 164914.285231 109.0 1.0
718729.37999916 4295405.38000011 114.56800079 255.0 0.0 0.0 32.0 14.0 1.0 1.0 164914.29149 14.0 1.0
718729.19000053 4295405.05000019 115.18800354 255.0 0.0 0.0 32.0 17.0 1.0 1.0 164914.291551 66.0 1.0
718729.17000008 4295404.98999977 115.29299927 255.0 0.0 0.0 32.0 18.0 1.0 1.0 164914.291563 62.0 1.0
718728.73999977 4295404.11000013 116.9960022 255.0 0.0 0.0 32.0 25.0 1.0 1.0 164914.2917 117.0 1.0
718728.76000023 4295404.07000017 117.10199738 255.0 0.0 0.0 32.0 26.0 1.0 1.0 164914.291712 155.0 1.0
718728.79999924 4295403.97000003 117.32800293 255.0 0.0 0.0 32.0 27.0 1.0 1.0 164914.291731 180.0 1.0
718728.76000023 4295403.9000001 117.47399902 255.0 0.0 0.0 32.0 28.0 1.0 1.0 164914.291742 309.0 1.0
718728.72999954 4295403.81999993 117.6190033 255.0 0.0 0.0 32.0 28.0 1.0 1.0 164914.291754 396.0 1.0
718728.70000076 4295403.75 117.76499939 255.0 0.0 0.0 32.0 29.0 1.0 1.0 164914.291761 364.0 1.0
718728.67000008 4295403.68000007 117.91200256 255.0 0.0 0.0 32.0 29.0 1.0 1.0 164914.291773 311.0 1.0
718728.64999962 4295403.5999999 118.05999756 255.0 0.0 0.0 32.0 30.0 1.0 1.0 164914.29178 435.0 1.0
718728.62000084 4295403.52999997 118.21399689 255.0 0.0 0.0 32.0 30.0 1.0 1.0 164914.291792 385.0 1.0
718728.59000015 4295403.45000005 118.3730011 255.0 0.0 0.0 32.0 31.0 1.0 1.0 164914.291803 273.0 1.0
718728.53000069 4295403.28999996 118.69400024 255.0 0.0 0.0 32.0 32.0 1.0 1.0 164914.291822 131.0 1.0
718728.26000023 4295402.92000008 119.34200287 255.0 0.0 0.0 32.0 34.0 1.0 1.0 164914.291853 178.0 1.0
718728.02000046 4295402.54999995 120.01300049 255.0 0.0 0.0 32.0 35.0 1.0 1.0 164914.291883 174.0 1.0
718728.13999939 4295402.54999995 120.08699799 255.0 0.0 0.0 32.0 36.0 1.0 1.0 164914.291891 271.0 1.0
718728.15999985 4295402.49000001 120.24199677 255.0 0.0 0.0 32.0 36.0 1.0 1.0 164914.291902 160.0 1.0
718729.29999924 4295405.34000015 114.55999756 255.0 0.0 0.0 32.0 14.0 1.0 1.0 164914.298162 18.0 1.0
718729.19000053 4295405.03999996 115.15699768 255.0 0.0 0.0 32.0 17.0 1.0 1.0 164914.298223 59.0 1.0
718728.73999977 4295404.0999999 116.95700073 255.0 0.0 0.0 32.0 25.0 1.0 1.0 164914.298372 109.0 1.0
718728.77000046 4295404.07000017 117.05899811 255.0 0.0 0.0 32.0 26.0 2.0 2.0 164914.298384 46.0 2.0
718728.77000046 4295403.96000004 117.3010025 255.0 0.0 0.0 32.0 27.0 1.0 1.0 164914.298403 250.0 1.0
718728.75 4295403.8900001 117.43900299 255.0 0.0 0.0 32.0 27.0 1.0 1.0 164914.29841 319.0 1.0
718728.72999954 4295403.81999993 117.5759964 255.0 0.0 0.0 32.0 28.0 1.0 1.0 164914.298422 219.0 1.0
718728.70000076 4295403.75 117.71900177 255.0 0.0 0.0 32.0 29.0 1.0 1.0 164914.298433 291.0 1.0
718728.64999962 4295403.5999999 118.01699829 255.0 0.0 0.0 32.0 30.0 1.0 1.0 164914.298452 261.0 1.0
718728.61000061 4295403.51999998 118.17299652 255.0 0.0 0.0 32.0 30.0 1.0 1.0 164914.298464 517.0 1.0
718728.57999992 4295403.44000006 118.33300018 255.0 0.0 0.0 32.0 31.0 1.0 1.0 164914.298471 514.0 1.0
718728.53000069 4295403.28999996 118.64900208 255.0 0.0 0.0 32.0 32.0 1.0 1.0 164914.29849 232.0 1.0
718728.53000069 4295403.22000003 118.79299927 255.0 0.0 0.0 32.0 32.0 1.0 1.0 164914.298502 101.0 1.0
718728.26000023 4295402.92000008 119.29000092 255.0 0.0 0.0 32.0 33.0 1.0 1.0 164914.298521 256.0 1.0
718728.18000031 4295402.66000009 119.8259964 255.0 0.0 0.0 32.0 35.0 1.0 1.0 164914.298551 95.0 1.0
718728.11000061 4295402.53999996 120.04699707 255.0 0.0 0.0 32.0 36.0 1.0 1.0 164914.298563 164.0 1.0
718728.15999985 4295402.49000001 120.18399811 255.0 0.0 0.0 32.0 36.0 1.0 1.0 164914.298571 144.0 1.0
718728.14999962 4295402.41000009 120.35700226 255.0 0.0 0.0 32.0 37.0 1.0 1.0 164914.298582 501.0 1.0
718729.29999924 4295405.32999992 114.53600311 255.0 0.0 0.0 32.0 14.0 1.0 1.0 164914.30483 23.0 1.0
718729.19000053 4295405.07999992 115.03199768 255.0 0.0 0.0 32.0 17.0 1.0 1.0 164914.304884 182.0 1.0
718729.12999916 4295404.96000004 115.24700165 255.0 0.0 0.0 32.0 18.0 2.0 2.0 164914.304903 29.0 2.0
718728.73999977 4295404.0999999 116.91799927 255.0 0.0 0.0 32.0 25.0 1.0 1.0 164914.30504 190.0 1.0
718728.78000069 4295403.96000004 117.26000214 255.0 0.0 0.0 32.0 27.0 1.0 1.0 164914.305071 293.0 1.0
718728.76000023 4295403.8900001 117.39800262 255.0 0.0 0.0 32.0 27.0 1.0 1.0 164914.305082 277.0 1.0
718728.71999931 4295403.80999994 117.54299927 255.0 0.0 0.0 32.0 28.0 1.0 1.0 164914.305094 503.0 1.0
718728.70000076 4295403.74000001 117.68599701 255.0 0.0 0.0 32.0 28.0 1.0 1.0 164914.305101 254.0 1.0
718728.63999939 4295403.5999999 117.98000336 255.0 0.0 0.0 32.0 29.0 1.0 1.0 164914.30512 319.0 1.0
718728.61000061 4295403.51999998 118.13400269 255.0 0.0 0.0 32.0 30.0 1.0 1.0 164914.305132 419.0 1.0
718728.59000015 4295403.44000006 118.28800201 255.0 0.0 0.0 32.0 31.0 1.0 1.0 164914.305143 331.0 1.0
718728.52000046 4295403.27999997 118.61100006 255.0 0.0 0.0 32.0 32.0 1.0 1.0 164914.305162 356.0 1.0
718728.48999977 4295403.20000005 118.77400208 255.0 0.0 0.0 32.0 32.0 1.0 1.0 164914.305174 267.0 1.0
718728.26000023 4295402.92000008 119.24500275 255.0 0.0 0.0 32.0 33.0 1.0 1.0 164914.305193 293.0 1.0
718728.13999939 4295402.63000011 119.81199646 255.0 0.0 0.0 32.0 35.0 1.0 1.0 164914.305223 98.0 1.0
718728.10000038 4295402.52999997 120.00800323 255.0 0.0 0.0 32.0 35.0 1.0 1.0 164914.305231 216.0 1.0
718728.14999962 4295402.49000001 120.13500214 255.0 0.0 0.0 32.0 36.0 1.0 1.0 164914.305242 124.0 1.0
718728.15999985 4295402.42000008 120.3030014 255.0 0.0 0.0 32.0 36.0 1.0 1.0 164914.305254 535.0 1.0
718729.43000031 4295405.34000015 114.55599976 255.0 0.0 0.0 32.0 14.0 1.0 1.0 164914.311514 16.0 1.0
718729.13999939 4295404.96000004 115.20600128 255.0 0.0 0.0 32.0 17.0 1.0 1.0 164914.311571 77.0 1.0
718729.17000008 4295404.92999983 115.29399872 255.0 0.0 0.0 32.0 18.0 1.0 1.0 164914.311582 48.0 1.0
718728.73999977 4295404.0999999 116.87400055 255.0 0.0 0.0 32.0 25.0 1.0 1.0 164914.311712 114.0 1.0
718728.77000046 4295403.95000005 117.21600342 255.0 0.0 0.0 32.0 27.0 1.0 1.0 164914.311743 316.0 1.0
718728.76000023 4295403.8900001 117.34899902 255.0 0.0 0.0 32.0 27.0 1.0 1.0 164914.31175 325.0 1.0
718728.71999931 4295403.81999993 117.49199677 255.0 0.0 0.0 32.0 28.0 1.0 1.0 164914.311762 323.0 1.0
718728.69000053 4295403.74000001 117.63700104 255.0 0.0 0.0 32.0 28.0 1.0 1.0 164914.311773 490.0 1.0
718728.67000008 4295403.67000008 117.78199768 255.0 0.0 0.0 32.0 29.0 1.0 1.0 164914.311781 412.0 1.0
718728.63999939 4295403.5999999 117.93000031 255.0 0.0 0.0 32.0 29.0 1.0 1.0 164914.311792 494.0 1.0
718728.62000084 4295403.51999998 118.07700348 255.0 0.0 0.0 32.0 30.0 1.0 1.0 164914.311804 469.0 1.0
718728.57999992 4295403.44000006 118.23600006 255.0 0.0 0.0 32.0 30.0 1.0 1.0 164914.311811 375.0 1.0
718728.53000069 4295403.27999997 118.5530014 255.0 0.0 0.0 32.0 31.0 1.0 1.0 164914.31183 257.0 1.0
718728.48999977 4295403.20000005 118.72200012 255.0 0.0 0.0 32.0 32.0 1.0 1.0 164914.311842 302.0 1.0
718728.25 4295402.92000008 119.18900299 255.0 0.0 0.0 32.0 33.0 1.0 1.0 164914.311861 242.0 1.0
718728.01000023 4295402.55999994 119.84500122 255.0 0.0 0.0 32.0 35.0 1.0 1.0 164914.311891 150.0 1.0
718728.05999947 4295402.50999999 119.97599792 255.0 0.0 0.0 32.0 35.0 1.0 1.0 164914.311903 306.0 1.0
718728.13999939 4295402.49000001 120.07800293 255.0 0.0 0.0 32.0 36.0 1.0 1.0 164914.311911 109.0 1.0
718728.15999985 4295402.42000008 120.23899841 255.0 0.0 0.0 32.0 36.0 1.0 1.0 164914.311922 154.0 1.0
718729.30999947 4295405.28000021 114.56500244 255.0 0.0 0.0 32.0 14.0 1.0 1.0 164914.318182 23.0 1.0
718729.14999962 4295404.94999981 115.17900085 255.0 0.0 0.0 32.0 17.0 1.0 1.0 164914.318243 327.0 1.0
718729.18000031 4295404.92000008 115.26499939 255.0 0.0 0.0 32.0 18.0 1.0 1.0 164914.318251 51.0 1.0
718728.76000023 4295404.0999999 116.83399963 255.0 0.0 0.0 32.0 25.0 1.0 1.0 164914.31838 92.0 1.0
718728.77000046 4295403.95000005 117.18299866 255.0 0.0 0.0 32.0 26.0 1.0 1.0 164914.318411 479.0 1.0
718728.75 4295403.88000011 117.31900024 255.0 0.0 0.0 32.0 27.0 1.0 1.0 164914.318422 336.0 1.0
718728.70999908 4295403.79999995 117.46900177 255.0 0.0 0.0 32.0 28.0 1.0 1.0 164914.318434 552.0 1.0
718728.68000031 4295403.73000002 117.60900116 255.0 0.0 0.0 32.0 28.0 1.0 1.0 164914.318441 627.0 1.0
718728.67000008 4295403.66000009 117.74700165 255.0 0.0 0.0 32.0 29.0 1.0 1.0 164914.318453 404.0 1.0
718728.63999939 4295403.58999991 117.89299774 255.0 0.0 0.0 32.0 29.0 1.0 1.0 164914.31846 309.0 1.0
718728.61000061 4295403.50999999 118.04699707 255.0 0.0 0.0 32.0 30.0 1.0 1.0 164914.318472 190.0 1.0
718728.59000015 4295403.44000006 118.19599915 255.0 0.0 0.0 32.0 30.0 1.0 1.0 164914.318483 456.0 1.0
718728.53000069 4295403.27999997 118.51300049 255.0 0.0 0.0 32.0 31.0 1.0 1.0 164914.318502 206.0 1.0
718728.48999977 4295403.19000006 118.68399811 255.0 0.0 0.0 32.0 32.0 1.0 1.0 164914.318514 227.0 1.0
718728.26000023 4295402.92000008 119.14299774 255.0 0.0 0.0 32.0 33.0 1.0 1.0 164914.318533 174.0 1.0
718728.01000023 4295402.54999995 119.80599976 255.0 0.0 0.0 32.0 35.0 1.0 1.0 164914.318563 166.0 1.0
718728.19000053 4295402.5999999 119.82700348 255.0 0.0 0.0 32.0 35.0 1.0 1.0 164914.318571 79.0 1.0
718728.14999962 4295402.49000001 120.02600098 255.0 0.0 0.0 32.0 36.0 1.0 1.0 164914.318582 100.0 1.0
718728.15999985 4295402.43000007 120.18499756 255.0 0.0 0.0 32.0 36.0 1.0 1.0 164914.318594 108.0 1.0
718729.31999969 4295405.38999987 114.26200104 255.0 0.0 0.0 32.0 12.0 1.0 1.0 164914.324823 329.0 1.0
718729.28000069 4295405.26000023 114.54100037 255.0 0.0 0.0 32.0 14.0 1.0 1.0 164914.324854 23.0 1.0
718729.15999985 4295405.0 115.04000092 255.0 0.0 0.0 32.0 17.0 1.0 1.0 164914.324903 471.0 1.0
718729.22999954 4295404.94000006 115.21099854 255.0 0.0 0.0 32.0 18.0 1.0 1.0 164914.324922 35.0 1.0
718729.13999939 4295404.86000013 115.33999634 255.0 0.0 0.0 32.0 18.0 1.0 1.0 164914.324934 169.0 1.0
718728.76000023 4295404.0999999 116.78800201 255.0 0.0 0.0 32.0 25.0 1.0 1.0 164914.325052 114.0 1.0
718728.79000092 4295403.96000004 117.12799835 255.0 0.0 0.0 32.0 26.0 1.0 1.0 164914.325083 242.0 1.0
718728.75 4295403.88000011 117.26999664 255.0 0.0 0.0 32.0 27.0 1.0 1.0 164914.32509 429.0 1.0
718728.72999954 4295403.80999994 117.40699768 255.0 0.0 0.0 32.0 27.0 1.0 1.0 164914.325102 300.0 1.0
718728.69000053 4295403.73000002 117.55599976 255.0 0.0 0.0 32.0 28.0 1.0 1.0 164914.325113 336.0 1.0
718728.68000031 4295403.67000008 117.69100189 255.0 0.0 0.0 32.0 28.0 1.0 1.0 164914.325121 347.0 1.0
718728.62999916 4295403.51999998 117.98300171 255.0 0.0 0.0 32.0 29.0 1.0 1.0 164914.325144 264.0 1.0
718728.60000038 4295403.45000005 118.13700104 255.0 0.0 0.0 32.0 30.0 1.0 1.0 164914.325151 265.0 1.0
718728.53000069 4295403.28999996 118.45500183 255.0 0.0 0.0 32.0 31.0 1.0 1.0 164914.32517 188.0 1.0
718728.51000023 4295403.21000004 118.61299896 255.0 0.0 0.0 32.0 32.0 1.0 1.0 164914.325182 214.0 1.0
718728.46999931 4295403.11999989 118.77999878 255.0 0.0 0.0 32.0 32.0 1.0 1.0 164914.325193 170.0 1.0
718728.25 4295402.92000008 119.08699799 255.0 0.0 0.0 32.0 33.0 1.0 1.0 164914.325201 170.0 1.0
718728.12999916 4295402.56999993 119.80799866 255.0 0.0 0.0 32.0 35.0 1.0 1.0 164914.325243 172.0 1.0
718728.14999962 4295402.5 119.95899963 255.0 0.0 0.0 32.0 35.0 1.0 1.0 164914.325251 125.0 1.0
718728.17000008 4295402.44000006 120.10900116 255.0 0.0 0.0 32.0 36.0 1.0 1.0 164914.325262 89.0 1.0
718729.29999924 4295405.34000015 114.32900238 255.0 0.0 0.0 32.0 13.0 1.0 1.0 164914.331503 210.0 1.0
718729.28000069 4295405.25 114.51399994 255.0 0.0 0.0 32.0 14.0 1.0 1.0 164914.331522 29.0 1.0
718729.39999962 4295405.26000023 114.56900024 255.0 0.0 0.0 32.0 14.0 1.0 1.0 164914.331533 20.0 1.0
718729.13999939 4295404.8499999 115.31099701 255.0 0.0 0.0 32.0 18.0 1.0 1.0 164914.331602 106.0 1.0
718729.12000084 4295404.80000019 115.41699982 255.0 0.0 0.0 32.0 19.0 1.0 1.0 164914.331613 135.0 1.0
718728.76000023 4295404.0999999 116.75099945 255.0 0.0 0.0 32.0 24.0 1.0 1.0 164914.33172 99.0 1.0
718728.77000046 4295403.94000006 117.10099792 255.0 0.0 0.0 32.0 26.0 1.0 1.0 164914.331751 410.0 1.0
718728.75 4295403.88000011 117.23100281 255.0 0.0 0.0 32.0 27.0 1.0 1.0 164914.331762 310.0 1.0
718728.71999931 4295403.79999995 117.37400055 255.0 0.0 0.0 32.0 27.0 1.0 1.0 164914.331774 399.0 1.0
718728.70000076 4295403.74000001 117.51000214 255.0 0.0 0.0 32.0 28.0 1.0 1.0 164914.331781 207.0 1.0
718728.68000031 4295403.67000008 117.65000153 255.0 0.0 0.0 32.0 28.0 1.0 1.0 164914.331793 218.0 1.0
718728.63999939 4295403.58999991 117.8010025 255.0 0.0 0.0 32.0 29.0 1.0 1.0 164914.3318 205.0 1.0
718728.62000084 4295403.51999998 117.94599915 255.0 0.0 0.0 32.0 29.0 1.0 1.0 164914.331812 407.0 1.0
718728.57999992 4295403.44000006 118.10399628 255.0 0.0 0.0 32.0 30.0 1.0 1.0 164914.331823 451.0 1.0
718728.54999924 4295403.28999996 118.40100098 255.0 0.0 0.0 32.0 31.0 1.0 1.0 164914.331842 213.0 1.0
718728.51000023 4295403.21000004 118.56900024 255.0 0.0 0.0 32.0 32.0 1.0 1.0 164914.331854 251.0 1.0
718728.46999931 4295403.11999989 118.73699951 255.0 0.0 0.0 32.0 32.0 1.0 1.0 164914.331861 226.0 1.0
718728.05999947 4295402.66000009 119.49199677 255.0 0.0 0.0 32.0 34.0 1.0 1.0 164914.331892 220.0 1.0
718728.02000046 4295402.56999993 119.68000031 255.0 0.0 0.0 32.0 34.0 1.0 1.0 164914.331903 190.0 1.0
718728.13999939 4295402.56999993 119.7539978 255.0 0.0 0.0 32.0 35.0 1.0 1.0 164914.331911 161.0 1.0
718728.15999985 4295402.50999999 119.90399933 255.0 0.0 0.0 32.0 35.0 1.0 1.0 164914.331922 108.0 1.0
718728.17000008 4295402.44000006 120.06300354 255.0 0.0 0.0 32.0 36.0 1.0 1.0 164914.331934 122.0 1.0
718729.29000092 4295405.32000017 114.3010025 255.0 0.0 0.0 32.0 12.0 1.0 1.0 164914.338171 405.0 1.0
718729.26000023 4295405.23000002 114.48699951 255.0 0.0 0.0 32.0 14.0 1.0 1.0 164914.338194 395.0 1.0
718729.29000092 4295405.21000004 114.56800079 255.0 0.0 0.0 32.0 14.0 1.0 1.0 164914.338201 21.0 1.0
718729.11000061 4295404.82999992 115.28700256 255.0 0.0 0.0 32.0 18.0 1.0 1.0 164914.338274 133.0 1.0
718728.73999977 4295404.13000011 116.60500336 255.0 0.0 0.0 32.0 24.0 1.0 1.0 164914.338381 100.0 1.0
718728.77000046 4295404.09000015 116.70600128 255.0 0.0 0.0 32.0 24.0 1.0 1.0 164914.338392 125.0 1.0
718728.77000046 4295403.94000006 117.05799866 255.0 0.0 0.0 32.0 26.0 1.0 1.0 164914.338423 321.0 1.0
718728.76000023 4295403.88000011 117.18499756 255.0 0.0 0.0 32.0 26.0 1.0 1.0 164914.33843 414.0 1.0
718728.73999977 4295403.80999994 117.31800079 255.0 0.0 0.0 32.0 27.0 1.0 1.0 164914.338442 392.0 1.0
718728.70000076 4295403.73000002 117.46600342 255.0 0.0 0.0 32.0 28.0 1.0 1.0 164914.338453 489.0 1.0
718728.68000031 4295403.66000009 117.60500336 255.0 0.0 0.0 32.0 28.0 1.0 1.0 164914.338461 392.0 1.0
718728.64999962 4295403.58999991 117.75 255.0 0.0 0.0 32.0 29.0 1.0 1.0 164914.338472 352.0 1.0
718728.59000015 4295403.44000006 118.0510025 255.0 0.0 0.0 32.0 30.0 1.0 1.0 164914.338491 213.0 1.0
718728.54000092 4295403.28999996 118.35700226 255.0 0.0 0.0 32.0 31.0 1.0 1.0 164914.33851 262.0 1.0
718728.5 4295403.20000005 118.51899719 255.0 0.0 0.0 32.0 31.0 1.0 1.0 164914.338522 369.0 1.0
718728.46999931 4295403.11999989 118.68199921 255.0 0.0 0.0 32.0 32.0 1.0 1.0 164914.338533 141.0 1.0
718728.01000023 4295402.55999994 119.62999725 255.0 0.0 0.0 32.0 34.0 1.0 1.0 164914.338571 208.0 1.0
718728.12999916 4295402.56999993 119.7009964 255.0 0.0 0.0 32.0 35.0 1.0 1.0 164914.338583 190.0 1.0
718728.17000008 4295402.51999998 119.83499908 255.0 0.0 0.0 32.0 35.0 1.0 1.0 164914.338591 70.0 1.0
718728.17000008 4295402.45000005 119.99700165 255.0 0.0 0.0 32.0 36.0 1.0 1.0 164914.338602 143.0 1.0
718730.20000076 4295407.30000019 110.45700073 255.0 0.0 0.0 32.0 89.0 1.0 1.0 164914.344343 46.0 1.0
718729.29000092 4295405.32000017 114.27500153 255.0 0.0 0.0 32.0 12.0 1.0 1.0 164914.344843 376.0 1.0
718729.27000046 4295405.26999998 114.37000275 255.0 0.0 0.0 32.0 13.0 1.0 1.0 164914.34485 276.0 1.0
718729.27000046 4295405.23000002 114.45899963 255.0 0.0 0.0 32.0 13.0 1.0 1.0 164914.344862 23.0 1.0
718729.25 4295405.17999983 114.55500031 255.0 0.0 0.0 32.0 14.0 1.0 1.0 164914.344873 18.0 1.0
718729.09000015 4295404.80999994 115.26599884 255.0 0.0 0.0 32.0 18.0 1.0 1.0 164914.344942 160.0 1.0
718729.09000015 4295404.76999998 115.36199951 255.0 0.0 0.0 32.0 18.0 2.0 2.0 164914.344953 57.0 2.0
718728.72999954 4295404.11999989 116.5759964 255.0 0.0 0.0 32.0 24.0 1.0 1.0 164914.345053 133.0 1.0
718728.78000069 4295404.09000015 116.66799927 255.0 0.0 0.0 32.0 24.0 1.0 1.0 164914.34506 182.0 1.0
718728.77000046 4295403.93000007 117.02200317 255.0 0.0 0.0 32.0 26.0 1.0 1.0 164914.345091 368.0 1.0
718728.73999977 4295403.8599999 117.15799713 255.0 0.0 0.0 32.0 26.0 1.0 1.0 164914.345102 400.0 1.0
718728.71999931 4295403.79999995 117.29000092 255.0 0.0 0.0 32.0 27.0 1.0 1.0 164914.345114 356.0 1.0
718728.69000053 4295403.72000003 117.43199921 255.0 0.0 0.0 32.0 27.0 1.0 1.0 164914.345121 360.0 1.0
718728.65999985 4295403.6500001 117.57499695 255.0 0.0 0.0 32.0 28.0 1.0 1.0 164914.345133 277.0 1.0
718728.63999939 4295403.57999992 117.71600342 255.0 0.0 0.0 32.0 29.0 1.0 1.0 164914.34514 263.0 1.0
718728.60000038 4295403.44000006 118.0019989 255.0 0.0 0.0 32.0 30.0 1.0 1.0 164914.345163 170.0 1.0
718728.54999924 4295403.28999996 118.30999756 255.0 0.0 0.0 32.0 31.0 1.0 1.0 164914.345182 162.0 1.0
718728.5 4295403.20000005 118.48100281 255.0 0.0 0.0 32.0 31.0 1.0 1.0 164914.345194 364.0 1.0
718728.46999931 4295403.11999989 118.64299774 255.0 0.0 0.0 32.0 32.0 1.0 1.0 164914.345201 345.0 1.0
718728.01000023 4295402.55999994 119.58399963 255.0 0.0 0.0 32.0 34.0 1.0 1.0 164914.345243 206.0 1.0
718728.12000084 4295402.55999994 119.65699768 255.0 0.0 0.0 32.0 34.0 1.0 1.0 164914.345251 275.0 1.0
718728.13999939 4295402.5 119.80899811 255.0 0.0 0.0 32.0 35.0 1.0 1.0 164914.345262 134.0 1.0
718728.17000008 4295402.45000005 119.94599915 255.0 0.0 0.0 32.0 36.0 1.0 1.0 164914.345274 83.0 1.0
718729.28000069 4295405.30999994 114.2440033 255.0 0.0 0.0 32.0 12.0 1.0 1.0 164914.351511 392.0 1.0
718729.26000023 4295405.21999979 114.4260025 255.0 0.0 0.0 32.0 13.0 1.0 1.0 164914.351534 35.0 1.0
718729.31999969 4295405.19999981 114.5 255.0 0.0 0.0 32.0 14.0 1.0 1.0 164914.351541 29.0 1.0
718729.40999985 4295405.19999981 114.56199646 255.0 0.0 0.0 32.0 14.0 1.0 1.0 164914.351553 17.0 1.0
718729.12000084 4295404.90999985 115.02100372 255.0 0.0 0.0 32.0 16.0 1.0 1.0 164914.351591 448.0 1.0
718729.11000061 4295404.76999998 115.31700134 255.0 0.0 0.0 32.0 18.0 1.0 1.0 164914.351622 142.0 1.0
718728.72999954 4295404.11999989 116.52899933 255.0 0.0 0.0 32.0 23.0 1.0 1.0 164914.351721 99.0 1.0
718728.78000069 4295404.09000015 116.61799622 255.0 0.0 0.0 32.0 24.0 1.0 1.0 164914.351732 112.0 1.0
718728.76000023 4295403.93000007 116.97699738 255.0 0.0 0.0 32.0 26.0 1.0 1.0 164914.351763 174.0 1.0
718728.73999977 4295403.8599999 117.10900116 255.0 0.0 0.0 32.0 26.0 1.0 1.0 164914.35177 203.0 1.0
718728.71999931 4295403.79999995 117.24199677 255.0 0.0 0.0 32.0 27.0 1.0 1.0 164914.351782 227.0 1.0
718728.70000076 4295403.73000002 117.37400055 255.0 0.0 0.0 32.0 27.0 1.0 1.0 164914.351793 205.0 1.0
718728.67000008 4295403.66000009 117.51999664 255.0 0.0 0.0 32.0 28.0 1.0 1.0 164914.351801 305.0 1.0
718728.64999962 4295403.58999991 117.66000366 255.0 0.0 0.0 32.0 28.0 1.0 1.0 164914.351812 328.0 1.0
718728.62000084 4295403.50999999 117.80500031 255.0 0.0 0.0 32.0 29.0 1.0 1.0 164914.351824 270.0 1.0
718728.59000015 4295403.44000006 117.95600128 255.0 0.0 0.0 32.0 29.0 1.0 1.0 164914.351831 268.0 1.0
718728.54000092 4295403.28999996 118.25800323 255.0 0.0 0.0 32.0 30.0 1.0 1.0 164914.35185 252.0 1.0
718728.5 4295403.20000005 118.42099762 255.0 0.0 0.0 32.0 31.0 1.0 1.0 164914.351862 324.0 1.0
718728.46999931 4295403.11999989 118.58000183 255.0 0.0 0.0 32.0 32.0 1.0 1.0 164914.351873 215.0 1.0
718728.44000053 4295403.03999996 118.7460022 255.0 0.0 0.0 32.0 32.0 1.0 1.0 164914.351881 150.0 1.0
718728.11000061 4295402.55999994 119.59899902 255.0 0.0 0.0 32.0 34.0 1.0 1.0 164914.351923 150.0 1.0
718728.12999916 4295402.5 119.74700165 255.0 0.0 0.0 32.0 35.0 1.0 1.0 164914.351931 93.0 1.0
718728.18000031 4295402.46000004 119.87599945 255.0 0.0 0.0 32.0 35.0 1.0 1.0 164914.351942 87.0 1.0
718729.29000092 4295405.21999979 114.39299774 255.0 0.0 0.0 32.0 13.0 1.0 1.0 164914.358202 40.0 1.0
718729.35000038 4295405.19999981 114.46700287 255.0 0.0 0.0 32.0 14.0 1.0 1.0 164914.358213 24.0 1.0
718729.32999992 4295405.1500001 114.56199646 255.0 0.0 0.0 32.0 14.0 1.0 1.0 164914.358221 20.0 1.0
718729.07999992 4295404.75 115.29799652 255.0 0.0 0.0 32.0 18.0 1.0 1.0 164914.358293 145.0 1.0
718729.06999969 4295404.71000004 115.39900208 255.0 0.0 0.0 32.0 18.0 1.0 1.0 164914.358301 211.0 1.0
718728.72999954 4295404.11000013 116.4960022 255.0 0.0 0.0 32.0 23.0 1.0 1.0 164914.358393 168.0 1.0
718728.77000046 4295404.07999992 116.59200287 255.0 0.0 0.0 32.0 24.0 1.0 1.0 164914.3584 136.0 1.0
718728.77000046 4295403.98000002 116.82299805 255.0 0.0 0.0 32.0 25.0 2.0 2.0 164914.358423 8.0 2.0
718728.76000023 4295403.92000008 116.94599915 255.0 0.0 0.0 32.0 25.0 1.0 1.0 164914.358431 434.0 1.0
718728.73999977 4295403.8499999 117.0759964 255.0 0.0 0.0 32.0 26.0 1.0 1.0 164914.358442 385.0 1.0
718728.70999908 4295403.77999997 117.21199799 255.0 0.0 0.0 32.0 27.0 1.0 1.0 164914.358454 426.0 1.0
718728.69000053 4295403.72000003 117.34600067 255.0 0.0 0.0 32.0 27.0 1.0 1.0 164914.358461 486.0 1.0
718728.67000008 4295403.6500001 117.48300171 255.0 0.0 0.0 32.0 28.0 1.0 1.0 164914.358473 418.0 1.0
718728.63999939 4295403.57999992 117.6269989 255.0 0.0 0.0 32.0 28.0 1.0 1.0 164914.35848 432.0 1.0
718728.61000061 4295403.5 117.77300262 255.0 0.0 0.0 32.0 29.0 1.0 1.0 164914.358492 197.0 1.0
718728.57999992 4295403.43000007 117.9240036 255.0 0.0 0.0 32.0 29.0 1.0 1.0 164914.358503 340.0 1.0
718728.53000069 4295403.27999997 118.22499847 255.0 0.0 0.0 32.0 30.0 1.0 1.0 164914.358522 234.0 1.0
718728.5 4295403.20000005 118.38400269 255.0 0.0 0.0 32.0 31.0 1.0 1.0 164914.358534 211.0 1.0
718728.46999931 4295403.11999989 118.54000092 255.0 0.0 0.0 32.0 31.0 1.0 1.0 164914.358541 186.0 1.0
718728.11000061 4295402.55999994 119.5510025 255.0 0.0 0.0 32.0 34.0 1.0 1.0 164914.358591 252.0 1.0
718728.12999916 4295402.5 119.69799805 255.0 0.0 0.0 32.0 35.0 1.0 1.0 164914.358602 128.0 1.0
718728.17000008 4295402.45000005 119.83200073 255.0 0.0 0.0 32.0 35.0 1.0 1.0 164914.358614 127.0 1.0
718729.26000023 4295405.23999977 114.27700043 255.0 0.0 0.0 32.0 12.0 1.0 1.0 164914.364862 300.0 1.0
718729.29000092 4295405.21000004 114.35900116 255.0 0.0 0.0 32.0 13.0 1.0 1.0 164914.364874 54.0 1.0
718729.34000015 4295405.19000006 114.43399811 255.0 0.0 0.0 32.0 13.0 1.0 1.0 164914.364881 55.0 1.0
718729.23999977 4295405.11000013 114.55200195 255.0 0.0 0.0 32.0 14.0 1.0 1.0 164914.364893 13.0 1.0
718729.05999947 4295404.73999977 115.26499939 255.0 0.0 0.0 32.0 18.0 1.0 1.0 164914.364962 200.0 1.0
718729.06999969 4295404.69999981 115.36000061 255.0 0.0 0.0 32.0 18.0 2.0 2.0 164914.364973 11.0 2.0
718728.72999954 4295404.11000013 116.4489975 255.0 0.0 0.0 32.0 23.0 1.0 1.0 164914.365061 198.0 1.0
718728.77000046 4295404.07999992 116.54199982 255.0 0.0 0.0 32.0 24.0 1.0 1.0 164914.365072 146.0 1.0
718728.75 4295403.97000003 116.78600311 255.0 0.0 0.0 32.0 25.0 2.0 2.0 164914.365091 8.0 2.0
718728.75 4295403.91000009 116.90200043 255.0 0.0 0.0 32.0 25.0 1.0 1.0 164914.365103 243.0 1.0
718728.73999977 4295403.8599999 117.02400208 255.0 0.0 0.0 32.0 26.0 1.0 1.0 164914.36511 269.0 1.0
718728.70000076 4295403.77999997 117.16500092 255.0 0.0 0.0 32.0 26.0 1.0 1.0 164914.365122 355.0 1.0
718728.69000053 4295403.72000003 117.29299927 255.0 0.0 0.0 32.0 27.0 1.0 1.0 164914.365133 323.0 1.0
718728.65999985 4295403.6500001 117.43499756 255.0 0.0 0.0 32.0 27.0 1.0 1.0 164914.365141 256.0 1.0
718728.62999916 4295403.57999992 117.57800293 255.0 0.0 0.0 32.0 28.0 1.0 1.0 164914.365152 244.0 1.0
718728.61000061 4295403.5 117.72000122 255.0 0.0 0.0 32.0 29.0 1.0 1.0 164914.365164 417.0 1.0
718728.53000069 4295403.27999997 118.16600037 255.0 0.0 0.0 32.0 30.0 1.0 1.0 164914.36519 298.0 1.0
718728.5 4295403.20000005 118.3219986 255.0 0.0 0.0 32.0 31.0 1.0 1.0 164914.365202 256.0 1.0
718728.46999931 4295403.11999989 118.48300171 255.0 0.0 0.0 32.0 31.0 1.0 1.0 164914.365213 237.0 1.0
718728.43000031 4295403.03999996 118.65100098 255.0 0.0 0.0 32.0 32.0 1.0 1.0 164914.365221 276.0 1.0
718728.10000038 4295402.55999994 119.49500275 255.0 0.0 0.0 32.0 34.0 1.0 1.0 164914.365263 186.0 1.0
718728.12000084 4295402.5 119.63899994 255.0 0.0 0.0 32.0 34.0 1.0 1.0 164914.365271 151.0 1.0
718728.15999985 4295402.46000004 119.76799774 255.0 0.0 0.0 32.0 35.0 1.0 1.0 164914.365282 143.0 1.0
718730.15999985 4295407.21000004 110.43499756 255.0 0.0 0.0 32.0 89.0 1.0 1.0 164914.371031 63.0 1.0
718729.25 4295405.23000002 114.25299835 255.0 0.0 0.0 32.0 12.0 1.0 1.0 164914.37153 70.0 1.0
718729.29999924 4295405.21000004 114.32900238 255.0 0.0 0.0 32.0 13.0 1.0 1.0 164914.371542 31.0 1.0
718729.34000015 4295405.19000006 114.40599823 255.0 0.0 0.0 32.0 13.0 1.0 1.0 164914.371553 99.0 1.0
718729.39999962 4295405.17000008 114.48000336 255.0 0.0 0.0 32.0 14.0 1.0 1.0 164914.371561 31.0 1.0
718729.11000061 4295404.84000015 115.02600098 255.0 0.0 0.0 32.0 17.0 2.0 2.0 164914.371611 28.0 2.0
718729.06999969 4295404.69000006 115.33300018 255.0 0.0 0.0 32.0 18.0 2.0 2.0 164914.371641 27.0 2.0
718728.72999954 4295404.11000013 116.41500092 255.0 0.0 0.0 32.0 23.0 1.0 1.0 164914.371733 138.0 1.0
718728.78000069 4295404.07999992 116.5059967 255.0 0.0 0.0 32.0 24.0 1.0 1.0 164914.37174 121.0 1.0
718728.79000092 4295403.98000002 116.73000336 255.0 0.0 0.0 32.0 25.0 1.0 1.0 164914.371763 344.0 1.0
718728.75 4295403.91000009 116.86299896 255.0 0.0 0.0 32.0 25.0 1.0 1.0 164914.371771 316.0 1.0
718728.72999954 4295403.8499999 116.99199677 255.0 0.0 0.0 32.0 26.0 1.0 1.0 164914.371782 360.0 1.0
718728.70999908 4295403.77999997 117.125 255.0 0.0 0.0 32.0 26.0 1.0 1.0 164914.371794 496.0 1.0
718728.69000053 4295403.72000003 117.2539978 255.0 0.0 0.0 32.0 27.0 1.0 1.0 164914.371801 268.0 1.0
718728.65999985 4295403.6400001 117.39700317 255.0 0.0 0.0 32.0 27.0 1.0 1.0 164914.371813 339.0 1.0
718728.62999916 4295403.56999993 117.53900146 255.0 0.0 0.0 32.0 28.0 1.0 1.0 164914.37182 248.0 1.0
718728.61000061 4295403.5 117.68099976 255.0 0.0 0.0 32.0 28.0 1.0 1.0 164914.371832 330.0 1.0
718728.57999992 4295403.43000007 117.82800293 255.0 0.0 0.0 32.0 29.0 1.0 1.0 164914.371843 182.0 1.0
718728.53000069 4295403.27999997 118.12599945 255.0 0.0 0.0 32.0 30.0 1.0 1.0 164914.371862 245.0 1.0
718728.5 4295403.20000005 118.27999878 255.0 0.0 0.0 32.0 31.0 1.0 1.0 164914.371874 212.0 1.0
718728.45999908 4295403.1099999 118.44400024 255.0 0.0 0.0 32.0 31.0 1.0 1.0 164914.371881 169.0 1.0
718728.43000031 4295403.02999997 118.61100006 255.0 0.0 0.0 32.0 32.0 1.0 1.0 164914.371893 324.0 1.0
718728.10000038 4295402.55999994 119.44200134 255.0 0.0 0.0 32.0 34.0 1.0 1.0 164914.371931 184.0 1.0
718728.12000084 4295402.5 119.59100342 255.0 0.0 0.0 32.0 34.0 1.0 1.0 164914.371942 115.0 1.0
718728.18000031 4295402.46000004 119.70899963 255.0 0.0 0.0 32.0 35.0 1.0 1.0 164914.371954 154.0 1.0
718729.23999977 4295405.21999979 114.21900177 255.0 0.0 0.0 32.0 12.0 1.0 1.0 164914.378202 82.0 1.0
718729.29000092 4295405.19999981 114.29499817 255.0 0.0 0.0 32.0 13.0 1.0 1.0 164914.378214 28.0 1.0
718729.36000061 4295405.19000006 114.36499786 255.0 0.0 0.0 32.0 13.0 1.0 1.0 164914.378221 21.0 1.0
718729.39999962 4295405.17000008 114.44200134 255.0 0.0 0.0 32.0 14.0 1.0 1.0 164914.378233 20.0 1.0
718729.29000092 4295405.07999992 114.56199646 255.0 0.0 0.0 32.0 14.0 1.0 1.0 164914.37824 22.0 1.0
718729.09000015 4295404.78000021 115.09100342 255.0 0.0 0.0 32.0 17.0 1.0 1.0 164914.378294 77.0 1.0
718729.04999924 4295404.67999983 115.29799652 255.0 0.0 0.0 32.0 18.0 1.0 1.0 164914.378313 248.0 1.0
718729.05999947 4295404.63999987 115.39199829 255.0 0.0 0.0 32.0 19.0 1.0 1.0 164914.378321 142.0 1.0
718728.73999977 4295404.11000013 116.36499786 255.0 0.0 0.0 32.0 23.0 1.0 1.0 164914.378401 83.0 1.0
718728.76000023 4295404.07000017 116.46600342 255.0 0.0 0.0 32.0 23.0 1.0 1.0 164914.378412 134.0 1.0
718728.78000069 4295403.98000002 116.68399811 255.0 0.0 0.0 32.0 24.0 1.0 1.0 164914.378431 386.0 1.0
718728.76000023 4295403.91000009 116.81199646 255.0 0.0 0.0 32.0 25.0 1.0 1.0 164914.378443 315.0 1.0
718728.73999977 4295403.8499999 116.93699646 255.0 0.0 0.0 32.0 26.0 1.0 1.0 164914.37845 368.0 1.0
718728.70000076 4295403.77999997 117.07700348 255.0 0.0 0.0 32.0 26.0 1.0 1.0 164914.378462 460.0 1.0
718728.68000031 4295403.71000004 117.20800018 255.0 0.0 0.0 32.0 27.0 1.0 1.0 164914.378473 389.0 1.0
718728.67000008 4295403.6500001 117.34100342 255.0 0.0 0.0 32.0 27.0 1.0 1.0 164914.378481 346.0 1.0
718728.62999916 4295403.56999993 117.48300171 255.0 0.0 0.0 32.0 28.0 1.0 1.0 164914.378492 325.0 1.0
718728.60000038 4295403.5 117.6269989 255.0 0.0 0.0 32.0 28.0 1.0 1.0 164914.378504 325.0 1.0
718728.57999992 4295403.43000007 117.77200317 255.0 0.0 0.0 32.0 29.0 1.0 1.0 164914.378511 262.0 1.0
718728.53000069 4295403.27999997 118.06800079 255.0 0.0 0.0 32.0 30.0 1.0 1.0 164914.37853 329.0 1.0
718728.48999977 4295403.20000005 118.22699738 255.0 0.0 0.0 32.0 30.0 1.0 1.0 164914.378542 290.0 1.0
718728.45999908 4295403.11999989 118.38700104 255.0 0.0 0.0 32.0 31.0 1.0 1.0 164914.378553 312.0 1.0
718728.44000053 4295403.03999996 118.54100037 255.0 0.0 0.0 32.0 31.0 1.0 1.0 164914.378561 197.0 1.0
718728.40999985 4295402.96000004 118.70400238 255.0 0.0 0.0 32.0 32.0 1.0 1.0 164914.378572 184.0 1.0
718728.02000046 4295402.51999998 119.43399811 255.0 0.0 0.0 32.0 34.0 1.0 1.0 164914.378603 311.0 1.0
718728.11000061 4295402.5 119.53099823 255.0 0.0 0.0 32.0 34.0 1.0 1.0 164914.378611 136.0 1.0
718728.15999985 4295402.46000004 119.65000153 255.0 0.0 0.0 32.0 35.0 1.0 1.0 164914.378622 193.0 1.0
718730.10000038 4295407.01999998 110.73200226 255.0 0.0 0.0 32.0 92.0 1.0 1.0 164914.38442 78.0 1.0
718729.27000046 4295405.21999979 114.18699646 255.0 0.0 0.0 32.0 12.0 1.0 1.0 164914.38487 71.0 1.0
718729.30999947 4295405.19999981 114.26200104 255.0 0.0 0.0 32.0 12.0 1.0 1.0 164914.384882 24.0 1.0
718729.38999939 4295405.19000006 114.33100128 255.0 0.0 0.0 32.0 13.0 1.0 1.0 164914.384893 28.0 1.0
718729.43000031 4295405.15999985 114.40799713 255.0 0.0 0.0 32.0 14.0 1.0 1.0 164914.384901 106.0 1.0
718729.04999924 4295404.63000011 115.36499786 255.0 0.0 0.0 32.0 18.0 1.0 1.0 164914.384992 176.0 1.0
718728.76000023 4295404.11000013 116.3219986 255.0 0.0 0.0 32.0 23.0 1.0 1.0 164914.385073 115.0 1.0
718728.77000046 4295404.05999994 116.42900085 255.0 0.0 0.0 32.0 23.0 1.0 1.0 164914.38508 145.0 1.0
718728.78000069 4295403.97000003 116.65000153 255.0 0.0 0.0 32.0 24.0 1.0 1.0 164914.385103 374.0 1.0
718728.76000023 4295403.91000009 116.77300262 255.0 0.0 0.0 32.0 25.0 1.0 1.0 164914.385111 254.0 1.0
718728.71999931 4295403.83999991 116.90799713 255.0 0.0 0.0 32.0 25.0 1.0 1.0 164914.385122 173.0 1.0
718728.71999931 4295403.77999997 117.03199768 255.0 0.0 0.0 32.0 26.0 1.0 1.0 164914.385134 224.0 1.0
718728.68000031 4295403.70000005 117.1740036 255.0 0.0 0.0 32.0 26.0 1.0 1.0 164914.385141 278.0 1.0
718728.65999985 4295403.6400001 117.30400085 255.0 0.0 0.0 32.0 27.0 1.0 1.0 164914.385153 209.0 1.0
718728.62999916 4295403.55999994 117.44799805 255.0 0.0 0.0 32.0 28.0 1.0 1.0 164914.38516 264.0 1.0
718728.61000061 4295403.5 117.58200073 255.0 0.0 0.0 32.0 28.0 1.0 1.0 164914.385172 248.0 1.0
718728.57999992 4295403.42000008 117.72899628 255.0 0.0 0.0 32.0 29.0 1.0 1.0 164914.385183 355.0 1.0
718728.52000046 4295403.26999998 118.03199768 255.0 0.0 0.0 32.0 30.0 1.0 1.0 164914.385202 376.0 1.0
718728.48999977 4295403.19000006 118.18599701 255.0 0.0 0.0 32.0 30.0 1.0 1.0 164914.385214 293.0 1.0
718728.47999954 4295403.11999989 118.33000183 255.0 0.0 0.0 32.0 31.0 1.0 1.0 164914.385221 214.0 1.0
718728.44000053 4295403.03999996 118.49900055 255.0 0.0 0.0 32.0 31.0 1.0 1.0 164914.385233 320.0 1.0
718728.39999962 4295402.95000005 118.66400146 255.0 0.0 0.0 32.0 32.0 1.0 1.0 164914.38524 233.0 1.0
718728.04000092 4295402.52999997 119.37599945 255.0 0.0 0.0 32.0 33.0 1.0 1.0 164914.385271 170.0 1.0
718728.12000084 4295402.50999999 119.47200012 255.0 0.0 0.0 32.0 34.0 1.0 1.0 164914.385282 145.0 1.0
718728.17000008 4295402.47000003 119.59400177 255.0 0.0 0.0 32.0 35.0 1.0 1.0 164914.385294 139.0 1.0
718730.13999939 4295407.1500001 110.43499756 255.0 0.0 0.0 32.0 89.0 1.0 1.0 164914.39105 361.0 1.0
718730.12999916 4295407.01999998 110.71299744 255.0 0.0 0.0 32.0 91.0 1.0 1.0 164914.391092 154.0 1.0
718729.21999931 4295405.15999985 114.2480011 255.0 0.0 0.0 32.0 12.0 1.0 1.0 164914.391554 458.0 1.0
718729.37000084 4295405.17999983 114.29799652 255.0 0.0 0.0 32.0 13.0 1.0 1.0 164914.391561 59.0 1.0
718729.43000031 4295405.15999985 114.37200165 255.0 0.0 0.0 32.0 13.0 1.0 1.0 164914.391573 20.0 1.0
718728.90999985 4295404.51000023 115.47399902 255.0 0.0 0.0 32.0 19.0 1.0 1.0 164914.391672 93.0 1.0
718728.75 4295404.11000013 116.27799988 255.0 0.0 0.0 32.0 23.0 1.0 1.0 164914.391741 83.0 1.0
718728.76000023 4295404.05999994 116.38200378 255.0 0.0 0.0 32.0 23.0 1.0 1.0 164914.391752 118.0 1.0
718728.78000069 4295403.97000003 116.59899902 255.0 0.0 0.0 32.0 24.0 1.0 1.0 164914.391771 272.0 1.0
718728.75 4295403.9000001 116.72799683 255.0 0.0 0.0 32.0 25.0 1.0 1.0 164914.391783 442.0 1.0
718728.72999954 4295403.83999991 116.85700226 255.0 0.0 0.0 32.0 25.0 1.0 1.0 164914.39179 334.0 1.0
718728.70999908 4295403.76999998 116.98400116 255.0 0.0 0.0 32.0 26.0 1.0 1.0 164914.391802 538.0 1.0
718728.68000031 4295403.71000004 117.11799622 255.0 0.0 0.0 32.0 26.0 1.0 1.0 164914.391813 420.0 1.0
718728.64999962 4295403.6400001 117.25499725 255.0 0.0 0.0 32.0 27.0 1.0 1.0 164914.391821 539.0 1.0
718728.64999962 4295403.57999992 117.38200378 255.0 0.0 0.0 32.0 27.0 1.0 1.0 164914.391832 378.0 1.0
718728.61000061 4295403.5 117.52799988 255.0 0.0 0.0 32.0 28.0 1.0 1.0 164914.391844 228.0 1.0
718728.59000015 4295403.43000007 117.66999817 255.0 0.0 0.0 32.0 28.0 1.0 1.0 164914.391851 403.0 1.0
718728.54000092 4295403.27999997 117.96299744 255.0 0.0 0.0 32.0 30.0 1.0 1.0 164914.39187 370.0 1.0
718728.48999977 4295403.20000005 118.125 255.0 0.0 0.0 32.0 30.0 1.0 1.0 164914.391882 333.0 1.0
718728.46999931 4295403.11999989 118.27500153 255.0 0.0 0.0 32.0 31.0 1.0 1.0 164914.391893 283.0 1.0
718728.45000076 4295403.04999995 118.43000031 255.0 0.0 0.0 32.0 31.0 1.0 1.0 164914.391901 224.0 1.0
718728.40999985 4295402.96000004 118.59899902 255.0 0.0 0.0 32.0 32.0 1.0 1.0 164914.391912 315.0 1.0
718728.03000069 4295402.52999997 119.31199646 255.0 0.0 0.0 32.0 33.0 1.0 1.0 164914.391943 198.0 1.0
718728.12000084 4295402.50999999 119.40599823 255.0 0.0 0.0 32.0 34.0 1.0 1.0 164914.391951 119.0 1.0
718728.15999985 4295402.47000003 119.53299713 255.0 0.0 0.0 32.0 34.0 1.0 1.0 164914.391962 102.0 1.0
718729.21999931 4295405.13999987 114.22399902 255.0 0.0 0.0 32.0 12.0 1.0 1.0 164914.398222 518.0 1.0
718729.20999908 4295405.0999999 114.31400299 255.0 0.0 0.0 32.0 13.0 1.0 1.0 164914.398233 277.0 1.0
718729.03000069 4295404.55999994 115.39800262 255.0 0.0 0.0 32.0 19.0 1.0 1.0 164914.39834 133.0 1.0
718728.76000023 4295404.0999999 116.23999786 255.0 0.0 0.0 32.0 22.0 1.0 1.0 164914.398413 121.0 1.0
718728.78000069 4295404.05999994 116.34200287 255.0 0.0 0.0 32.0 23.0 1.0 1.0 164914.39842 106.0 1.0
718728.78000069 4295403.96000004 116.56199646 255.0 0.0 0.0 32.0 24.0 1.0 1.0 164914.398443 255.0 1.0
718728.76000023 4295403.9000001 116.69100189 255.0 0.0 0.0 32.0 25.0 1.0 1.0 164914.398451 354.0 1.0
718728.72999954 4295403.82999992 116.81900024 255.0 0.0 0.0 32.0 25.0 1.0 1.0 164914.398462 313.0 1.0
718728.70999908 4295403.76999998 116.94799805 255.0 0.0 0.0 32.0 26.0 1.0 1.0 164914.398474 277.0 1.0
718728.69000053 4295403.70000005 117.07900238 255.0 0.0 0.0 32.0 26.0 1.0 1.0 164914.398481 393.0 1.0
718728.65999985 4295403.63000011 117.21600342 255.0 0.0 0.0 32.0 27.0 1.0 1.0 164914.398493 398.0 1.0
718728.63999939 4295403.56999993 117.34799957 255.0 0.0 0.0 32.0 27.0 1.0 1.0 164914.3985 292.0 1.0
718728.62000084 4295403.5 117.48500061 255.0 0.0 0.0 32.0 28.0 1.0 1.0 164914.398512 224.0 1.0
718728.59000015 4295403.42000008 117.6309967 255.0 0.0 0.0 32.0 28.0 1.0 1.0 164914.398523 422.0 1.0
718728.52000046 4295403.26999998 117.92900085 255.0 0.0 0.0 32.0 29.0 1.0 1.0 164914.398542 487.0 1.0
718728.48999977 4295403.19000006 118.08300018 255.0 0.0 0.0 32.0 30.0 1.0 1.0 164914.398554 561.0 1.0
718728.46999931 4295403.11999989 118.23600006 255.0 0.0 0.0 32.0 30.0 1.0 1.0 164914.398561 440.0 1.0
718728.40999985 4295402.96000004 118.5530014 255.0 0.0 0.0 32.0 32.0 1.0 1.0 164914.39858 325.0 1.0
718728.03000069 4295402.52999997 119.26499939 255.0 0.0 0.0 32.0 33.0 1.0 1.0 164914.398611 244.0 1.0
718728.12000084 4295402.50999999 119.35199738 255.0 0.0 0.0 32.0 34.0 1.0 1.0 164914.398622 115.0 1.0
718728.15999985 4295402.47000003 119.47799683 255.0 0.0 0.0 32.0 34.0 1.0 1.0 164914.398634 102.0 1.0
718730.10000038 4295406.92999983 110.80400085 255.0 0.0 0.0 32.0 92.0 1.0 1.0 164914.404451 139.0 1.0
718729.40999985 4295405.17000008 114.22799683 255.0 0.0 0.0 32.0 12.0 1.0 1.0 164914.404901 26.0 1.0
718729.05999947 4295404.69999981 115.05500031 255.0 0.0 0.0 32.0 17.0 1.0 1.0 164914.404982 59.0 1.0
718728.77000046 4295404.0999999 116.19000244 255.0 0.0 0.0 32.0 22.0 1.0 1.0 164914.405081 96.0 1.0
718728.77000046 4295404.05999994 116.29699707 255.0 0.0 0.0 32.0 23.0 1.0 1.0 164914.405092 153.0 1.0
718728.78000069 4295403.96000004 116.51399994 255.0 0.0 0.0 32.0 24.0 1.0 1.0 164914.405111 194.0 1.0
718728.76000023 4295403.9000001 116.63800049 255.0 0.0 0.0 32.0 24.0 1.0 1.0 164914.405123 201.0 1.0
718728.72999954 4295403.82999992 116.77100372 255.0 0.0 0.0 32.0 25.0 1.0 1.0 164914.40513 231.0 1.0
718728.70999908 4295403.76999998 116.89800262 255.0 0.0 0.0 32.0 25.0 1.0 1.0 164914.405142 445.0 1.0
718728.69000053 4295403.70000005 117.02700043 255.0 0.0 0.0 32.0 26.0 1.0 1.0 164914.405153 340.0 1.0
718728.64999962 4295403.63000011 117.16899872 255.0 0.0 0.0 32.0 27.0 1.0 1.0 164914.405161 541.0 1.0
718728.64999962 4295403.56999993 117.29000092 255.0 0.0 0.0 32.0 27.0 1.0 1.0 164914.405172 305.0 1.0
718728.61000061 4295403.5 117.43399811 255.0 0.0 0.0 32.0 28.0 1.0 1.0 164914.405184 406.0 1.0
718728.59000015 4295403.43000007 117.57099915 255.0 0.0 0.0 32.0 28.0 1.0 1.0 164914.405191 259.0 1.0
718728.54000092 4295403.27999997 117.86399841 255.0 0.0 0.0 32.0 29.0 1.0 1.0 164914.40521 390.0 1.0
718728.51000023 4295403.20000005 118.01499939 255.0 0.0 0.0 32.0 30.0 1.0 1.0 164914.405222 262.0 1.0
718728.47999954 4295403.13000011 118.16899872 255.0 0.0 0.0 32.0 30.0 1.0 1.0 164914.405233 305.0 1.0
718728.45000076 4295403.04999995 118.32700348 255.0 0.0 0.0 32.0 31.0 1.0 1.0 164914.405241 214.0 1.0
718728.01000023 4295402.52999997 119.20800018 255.0 0.0 0.0 32.0 33.0 1.0 1.0 164914.405283 371.0 1.0
718728.13999939 4295402.52999997 119.27500153 255.0 0.0 0.0 32.0 34.0 1.0 1.0 164914.40529 95.0 1.0
718728.17000008 4295402.48000002 119.40499878 255.0 0.0 0.0 32.0 34.0 1.0 1.0 164914.405302 161.0 1.0
718730.14999962 4295407.07999992 110.44499969 255.0 0.0 0.0 32.0 89.0 1.0 1.0 164914.411074 283.0 1.0
718729.20000076 4295405.07999992 114.2519989 255.0 0.0 0.0 32.0 12.0 1.0 1.0 164914.411573 365.0 1.0
718729.04999924 4295404.69000006 115.03099823 255.0 0.0 0.0 32.0 17.0 1.0 1.0 164914.411653 237.0 1.0
718728.77000046 4295404.0999999 116.15599823 255.0 0.0 0.0 32.0 22.0 1.0 1.0 164914.411753 151.0 1.0
718728.76000023 4295404.03999996 116.26999664 255.0 0.0 0.0 32.0 23.0 2.0 2.0 164914.41176 18.0 2.0
718728.79000092 4295403.96000004 116.47899628 255.0 0.0 0.0 32.0 24.0 1.0 1.0 164914.411783 195.0 1.0
718728.75 4295403.8900001 116.60800171 255.0 0.0 0.0 32.0 24.0 1.0 1.0 164914.411791 307.0 1.0
718728.73999977 4295403.82999992 116.73100281 255.0 0.0 0.0 32.0 25.0 1.0 1.0 164914.411802 285.0 1.0
718728.71999931 4295403.76999998 116.85399628 255.0 0.0 0.0 32.0 25.0 1.0 1.0 164914.411814 226.0 1.0
718728.68000031 4295403.70000005 116.99099731 255.0 0.0 0.0 32.0 26.0 1.0 1.0 164914.411821 494.0 1.0
718728.65999985 4295403.63000011 117.125 255.0 0.0 0.0 32.0 26.0 1.0 1.0 164914.411833 340.0 1.0
718728.63999939 4295403.55999994 117.25900269 255.0 0.0 0.0 32.0 27.0 1.0 1.0 164914.41184 487.0 1.0
718728.62000084 4295403.49000001 117.39399719 255.0 0.0 0.0 32.0 27.0 1.0 1.0 164914.411852 254.0 1.0
718728.59000015 4295403.42000008 117.53299713 255.0 0.0 0.0 32.0 28.0 1.0 1.0 164914.411863 285.0 1.0
718728.53000069 4295403.26999998 117.83000183 255.0 0.0 0.0 32.0 29.0 1.0 1.0 164914.411882 420.0 1.0
718728.51000023 4295403.20000005 117.97399902 255.0 0.0 0.0 32.0 30.0 1.0 1.0 164914.411894 206.0 1.0
718728.45999908 4295403.1099999 118.13600159 255.0 0.0 0.0 32.0 30.0 1.0 1.0 164914.411901 461.0 1.0
718728.40999985 4295402.96000004 118.44499969 255.0 0.0 0.0 32.0 31.0 1.0 1.0 164914.41192 305.0 1.0
718728.02000046 4295402.52999997 119.15799713 255.0 0.0 0.0 32.0 33.0 1.0 1.0 164914.411951 232.0 1.0
718728.12999916 4295402.51999998 119.23300171 255.0 0.0 0.0 32.0 33.0 1.0 1.0 164914.411962 100.0 1.0
718728.17000008 4295402.48000002 119.35500336 255.0 0.0 0.0 32.0 34.0 1.0 1.0 164914.411974 96.0 1.0
718730.12999916 4295407.0 110.55599976 255.0 0.0 0.0 32.0 90.0 1.0 1.0 164914.417761 155.0 1.0
718729.18000031 4295405.07000017 114.22100067 255.0 0.0 0.0 32.0 12.0 1.0 1.0 164914.418241 341.0 1.0
718729.12999916 4295404.92999983 114.5019989 255.0 0.0 0.0 32.0 14.0 1.0 1.0 164914.418272 434.0 1.0
718728.96999931 4295404.51999998 115.30599976 255.0 0.0 0.0 32.0 18.0 1.0 1.0 164914.418352 137.0 1.0
718729.01000023 4295404.48999977 115.39399719 255.0 0.0 0.0 32.0 19.0 1.0 1.0 164914.418363 42.0 1.0
718728.77000046 4295404.0999999 116.10700226 255.0 0.0 0.0 32.0 22.0 1.0 1.0 164914.418421 132.0 1.0
718728.75 4295404.03999996 116.22699738 255.0 0.0 0.0 32.0 22.0 2.0 2.0 164914.418432 9.0 2.0
718728.77000046 4295403.95000005 116.43800354 255.0 0.0 0.0 32.0 23.0 1.0 1.0 164914.418451 367.0 1.0
718728.75 4295403.88000011 116.56300354 255.0 0.0 0.0 32.0 24.0 1.0 1.0 164914.418463 508.0 1.0
718728.71999931 4295403.81999993 116.68900299 255.0 0.0 0.0 32.0 25.0 1.0 1.0 164914.41847 318.0 1.0
718728.70000076 4295403.75999999 116.81300354 255.0 0.0 0.0 32.0 25.0 1.0 1.0 164914.418482 429.0 1.0
718728.68000031 4295403.69000006 116.94499969 255.0 0.0 0.0 32.0 26.0 1.0 1.0 164914.418493 651.0 1.0
718728.65999985 4295403.63000011 117.07299805 255.0 0.0 0.0 32.0 26.0 1.0 1.0 164914.418501 391.0 1.0
718728.62999916 4295403.55999994 117.21099854 255.0 0.0 0.0 32.0 27.0 1.0 1.0 164914.418512 501.0 1.0
718728.61000061 4295403.49000001 117.34200287 255.0 0.0 0.0 32.0 27.0 1.0 1.0 164914.418524 322.0 1.0
718728.57999992 4295403.42000008 117.48400116 255.0 0.0 0.0 32.0 28.0 1.0 1.0 164914.418531 328.0 1.0
718728.53000069 4295403.27999997 117.76999664 255.0 0.0 0.0 32.0 29.0 1.0 1.0 164914.41855 320.0 1.0
718728.5 4295403.20000005 117.91999817 255.0 0.0 0.0 32.0 29.0 1.0 1.0 164914.418562 243.0 1.0
718728.47999954 4295403.13000011 118.06900024 255.0 0.0 0.0 32.0 30.0 1.0 1.0 164914.418573 255.0 1.0
718728.44000053 4295403.03999996 118.22899628 255.0 0.0 0.0 32.0 31.0 1.0 1.0 164914.418581 385.0 1.0
718728.12999916 4295402.52999997 119.16500092 255.0 0.0 0.0 32.0 33.0 1.0 1.0 164914.41863 154.0 1.0
718728.17000008 4295402.48000002 119.29199982 255.0 0.0 0.0 32.0 34.0 1.0 1.0 164914.418642 144.0 1.0
718730.06999969 4295407.01000023 110.45500183 255.0 0.0 0.0 32.0 90.0 1.0 1.0 164914.424421 205.0 1.0
718730.05999947 4295406.82000017 110.875 255.0 0.0 0.0 32.0 93.0 1.0 1.0 164914.424482 166.0 1.0
718729.17000008 4295405.01999998 114.28500366 255.0 0.0 0.0 32.0 13.0 1.0 1.0 164914.424921 320.0 1.0
718729.04000092 4295404.67000008 114.96299744 255.0 0.0 0.0 32.0 16.0 1.0 1.0 164914.424993 226.0 1.0
718729.02000046 4295404.57000017 115.16300201 255.0 0.0 0.0 32.0 17.0 1.0 1.0 164914.425012 19.0 1.0
718728.72999954 4295404.11999989 115.98300171 255.0 0.0 0.0 32.0 21.0 1.0 1.0 164914.425081 156.0 1.0
718728.78000069 4295404.09000015 116.0719986 255.0 0.0 0.0 32.0 22.0 1.0 1.0 164914.425093 127.0 1.0
718728.77000046 4295403.94000006 116.40299988 255.0 0.0 0.0 32.0 23.0 1.0 1.0 164914.425123 344.0 1.0
718728.73999977 4295403.88000011 116.52899933 255.0 0.0 0.0 32.0 24.0 1.0 1.0 164914.425131 381.0 1.0
718728.71999931 4295403.80999994 116.65100098 255.0 0.0 0.0 32.0 24.0 1.0 1.0 164914.425142 290.0 1.0
718728.69000053 4295403.75 116.78199768 255.0 0.0 0.0 32.0 25.0 1.0 1.0 164914.425154 579.0 1.0
718728.67000008 4295403.68000007 116.91200256 255.0 0.0 0.0 32.0 26.0 1.0 1.0 164914.425161 223.0 1.0
718728.64999962 4295403.61999989 117.03800201 255.0 0.0 0.0 32.0 26.0 1.0 1.0 164914.425173 221.0 1.0
