//X Y Z UserData ScanAngleRank NumberOfReturns ReturnNumber GpsTime Intensity Classification
100
718727.39999962 4295400.20999999 116.79299927 255.0 0.0 0.0 32.0 25.0 1.0 1.0 164915.406076 205.0 1.0
718727.36000061 4295400.13 116.93000031 255.0 0.0 0.0 32.0 26.0 1.0 1.0 164915.406088 410.0 1.0
718727.35000038 4295400.07 117.05500031 255.0 0.0 0.0 32.0 26.0 1.0 1.0 164915.406095 247.0 1.0
718727.87999916 4295401.05999994 115.26000214 255.0 0.0 0.0 32.0 18.0 1.0 1.0 164915.412626 102.0 1.0
718727.52000046 4295400.54000002 116.1230011 255.0 0.0 0.0 32.0 22.0 1.0 1.0 164915.412695 486.0 1.0
718727.48999977 4295400.47999999 116.24500275 255.0 0.0 0.0 32.0 23.0 2.0 2.0 164915.412706 244.0 2.0
718727.46999931 4295400.41999999 116.36299896 255.0 0.0 0.0 32.0 23.0 1.0 1.0 164915.412718 287.0 1.0
718727.44000053 4295400.34 116.49299622 255.0 0.0 0.0 32.0 24.0 1.0 1.0 164915.412725 355.0 1.0
718727.42000008 4295400.28 116.61399841 255.0 0.0 0.0 32.0 24.0 1.0 1.0 164915.412737 191.0 1.0
718727.39999962 4295400.20999999 116.7440033 255.0 0.0 0.0 32.0 25.0 1.0 1.0 164915.412744 240.0 1.0
718727.37999916 4295400.15000001 116.8730011 255.0 0.0 0.0 32.0 25.0 1.0 1.0 164915.412756 204.0 1.0
718727.35000038 4295400.07 117.00700378 255.0 0.0 0.0 32.0 26.0 1.0 1.0 164915.412767 194.0 1.0
718727.69000053 4295400.92000002 115.39399719 255.0 0.0 0.0 32.0 19.0 1.0 1.0 164915.419306 160.0 1.0
718727.54999924 4295400.60000002 115.96900177 255.0 0.0 0.0 32.0 22.0 1.0 1.0 164915.419355 436.0 1.0
718727.48999977 4295400.47 116.21199799 255.0 0.0 0.0 32.0 23.0 1.0 1.0 164915.419374 204.0 1.0
718727.45999908 4295400.41 116.33399963 255.0 0.0 0.0 32.0 23.0 1.0 1.0 164915.419386 561.0 1.0
718727.42000008 4295400.28 116.58100128 255.0 0.0 0.0 32.0 24.0 1.0 1.0 164915.419405 422.0 1.0
718727.38999939 4295400.20999999 116.70899963 255.0 0.0 0.0 32.0 25.0 1.0 1.0 164915.419416 445.0 1.0
718727.36000061 4295400.14 116.84100342 255.0 0.0 0.0 32.0 25.0 2.0 2.0 164915.419428 126.0 2.0
718727.31999969 4295400.06 116.98200226 255.0 0.0 0.0 32.0 26.0 2.0 2.0 164915.419435 41.0 2.0
718727.69000053 4295400.92000002 115.35299683 255.0 0.0 0.0 32.0 19.0 1.0 1.0 164915.425978 240.0 1.0
718727.54999924 4295400.60000002 115.9240036 255.0 0.0 0.0 32.0 21.0 1.0 1.0 164915.426027 353.0 1.0
718727.52000046 4295400.54000002 116.04299927 255.0 0.0 0.0 32.0 22.0 2.0 2.0 164915.426035 68.0 2.0
718727.48999977 4295400.47999999 116.16200256 255.0 0.0 0.0 32.0 22.0 1.0 1.0 164915.426046 350.0 1.0
718727.44000053 4295400.34999999 116.40699768 255.0 0.0 0.0 32.0 23.0 1.0 1.0 164915.426065 379.0 1.0
718727.42000008 4295400.28 116.52999878 255.0 0.0 0.0 32.0 24.0 1.0 1.0 164915.426077 394.0 1.0
718727.39999962 4295400.20999999 116.65799713 255.0 0.0 0.0 32.0 25.0 2.0 2.0 164915.426084 45.0 2.0
718727.37000084 4295400.15000001 116.78700256 255.0 0.0 0.0 32.0 25.0 2.0 2.0 164915.426096 62.0 2.0
718727.34000015 4295400.07 116.92299652 255.0 0.0 0.0 32.0 26.0 1.0 1.0 164915.426107 625.0 1.0
718727.69000053 4295400.91000003 115.31800079 255.0 0.0 0.0 32.0 18.0 1.0 1.0 164915.432646 292.0 1.0
718727.51000023 4295400.47999999 116.1190033 255.0 0.0 0.0 32.0 22.0 1.0 1.0 164915.432714 264.0 1.0
718727.47999954 4295400.41999999 116.23799896 255.0 0.0 0.0 32.0 23.0 1.0 1.0 164915.432726 223.0 1.0
718727.45000076 4295400.34999999 116.36399841 255.0 0.0 0.0 32.0 23.0 1.0 1.0 164915.432737 307.0 1.0
718727.42000008 4295400.28 116.48999786 255.0 0.0 0.0 32.0 24.0 1.0 1.0 164915.432745 277.0 1.0
718727.38999939 4295400.20999999 116.6190033 255.0 0.0 0.0 32.0 24.0 1.0 1.0 164915.432756 518.0 1.0
718727.37000084 4295400.14 116.75 255.0 0.0 0.0 32.0 25.0 1.0 1.0 164915.432768 252.0 1.0
718727.34000015 4295400.07 116.8809967 255.0 0.0 0.0 32.0 26.0 1.0 1.0 164915.432775 289.0 1.0
718727.65999985 4295400.85000002 115.38800049 255.0 0.0 0.0 32.0 19.0 2.0 2.0 164915.439325 227.0 2.0
718727.53000069 4295400.54000002 115.95700073 255.0 0.0 0.0 32.0 22.0 1.0 1.0 164915.439375 426.0 1.0
718727.51000023 4295400.47999999 116.07299805 255.0 0.0 0.0 32.0 22.0 1.0 1.0 164915.439386 193.0 1.0
718727.47999954 4295400.41999999 116.19599915 255.0 0.0 0.0 32.0 23.0 1.0 1.0 164915.439398 328.0 1.0
718727.44000053 4295400.34 116.3239975 255.0 0.0 0.0 32.0 23.0 2.0 2.0 164915.439405 287.0 2.0
718727.42000008 4295400.28 116.44499969 255.0 0.0 0.0 32.0 24.0 1.0 1.0 164915.439417 227.0 1.0
718727.39999962 4295400.22 116.56800079 255.0 0.0 0.0 32.0 24.0 1.0 1.0 164915.439424 269.0 1.0
718727.37000084 4295400.15000001 116.6969986 255.0 0.0 0.0 32.0 25.0 1.0 1.0 164915.439436 379.0 1.0
718727.34000015 4295400.08 116.83000183 255.0 0.0 0.0 32.0 25.0 1.0 1.0 164915.439447 301.0 1.0
718727.56999969 4295400.61000001 115.80200195 255.0 0.0 0.0 32.0 21.0 2.0 2.0 164915.446035 14.0 2.0
718727.51000023 4295400.52999997 115.93199921 255.0 0.0 0.0 32.0 21.0 1.0 1.0 164915.446047 705.0 1.0
718727.47999954 4295400.46000001 116.0510025 255.0 0.0 0.0 32.0 22.0 2.0 2.0 164915.446054 340.0 2.0
718727.46999931 4295400.41 116.16300201 255.0 0.0 0.0 32.0 23.0 1.0 1.0 164915.446066 283.0 1.0
718727.40999985 4295400.27000001 116.41400146 255.0 0.0 0.0 32.0 24.0 1.0 1.0 164915.446085 400.0 1.0
718727.38999939 4295400.20999999 116.53600311 255.0 0.0 0.0 32.0 24.0 1.0 1.0 164915.446096 344.0 1.0
718727.36000061 4295400.14 116.66500092 255.0 0.0 0.0 32.0 25.0 1.0 1.0 164915.446108 458.0 1.0
718727.35000038 4295400.08 116.78900146 255.0 0.0 0.0 32.0 25.0 1.0 1.0 164915.446115 407.0 1.0
718727.54000092 4295400.58999997 115.76699829 255.0 0.0 0.0 32.0 21.0 1.0 1.0 164915.452707 460.0 1.0
718727.52000046 4295400.54000002 115.8809967 255.0 0.0 0.0 32.0 21.0 1.0 1.0 164915.452715 156.0 1.0
718727.5 4295400.47999999 115.99700165 255.0 0.0 0.0 32.0 22.0 2.0 2.0 164915.452726 81.0 2.0
718727.47999954 4295400.41 116.11399841 255.0 0.0 0.0 32.0 22.0 1.0 1.0 164915.452738 344.0 1.0
718727.45000076 4295400.34999999 116.23799896 255.0 0.0 0.0 32.0 23.0 1.0 1.0 164915.452745 300.0 1.0
718727.43000031 4295400.28999999 116.35600281 255.0 0.0 0.0 32.0 23.0 2.0 2.0 164915.452757 169.0 2.0
718727.38999939 4295400.16 116.60500336 255.0 0.0 0.0 32.0 24.0 1.0 1.0 164915.452776 298.0 1.0
718727.35000038 4295400.08 116.73799896 255.0 0.0 0.0 32.0 25.0 1.0 1.0 164915.452787 169.0 1.0
718727.56999969 4295400.64999998 115.61699677 255.0 0.0 0.0 32.0 20.0 1.0 1.0 164915.459368 366.0 1.0
718727.54999924 4295400.58999997 115.72799683 255.0 0.0 0.0 32.0 21.0 1.0 1.0 164915.459375 226.0 1.0
718727.51000023 4295400.52999997 115.84600067 255.0 0.0 0.0 32.0 21.0 1.0 1.0 164915.459387 367.0 1.0
718727.5 4295400.47999999 115.95700073 255.0 0.0 0.0 32.0 22.0 1.0 1.0 164915.459394 284.0 1.0
718727.46999931 4295400.41 116.07700348 255.0 0.0 0.0 32.0 22.0 1.0 1.0 164915.459406 208.0 1.0
718727.45000076 4295400.34999999 116.19799805 255.0 0.0 0.0 32.0 23.0 1.0 1.0 164915.459417 223.0 1.0
718727.42000008 4295400.28 116.32099915 255.0 0.0 0.0 32.0 23.0 1.0 1.0 164915.459425 433.0 1.0
718727.38999939 4295400.20999999 116.44599915 255.0 0.0 0.0 32.0 24.0 1.0 1.0 164915.459436 365.0 1.0
718727.37000084 4295400.15000001 116.57299805 255.0 0.0 0.0 32.0 24.0 2.0 2.0 164915.459448 122.0 2.0
718727.35000038 4295400.08 116.69799805 255.0 0.0 0.0 32.0 25.0 1.0 1.0 164915.459455 388.0 1.0
718727.63999939 4295400.77999997 115.34600067 255.0 0.0 0.0 32.0 19.0 1.0 1.0 164915.466017 229.0 1.0
718727.54000092 4295400.58999997 115.68800354 255.0 0.0 0.0 32.0 20.0 1.0 1.0 164915.466047 393.0 1.0
718727.51000023 4295400.52999997 115.80400085 255.0 0.0 0.0 32.0 21.0 1.0 1.0 164915.466055 341.0 1.0
718727.48999977 4295400.47 115.91899872 255.0 0.0 0.0 32.0 21.0 1.0 1.0 164915.466066 411.0 1.0
718727.46999931 4295400.41 116.03700256 255.0 0.0 0.0 32.0 22.0 1.0 1.0 164915.466078 352.0 1.0
718727.43000031 4295400.34 116.16000366 255.0 0.0 0.0 32.0 23.0 1.0 1.0 164915.466085 411.0 1.0
718727.42000008 4295400.28 116.27700043 255.0 0.0 0.0 32.0 23.0 1.0 1.0 164915.466097 415.0 1.0
718727.39999962 4295400.22 116.39900208 255.0 0.0 0.0 32.0 24.0 1.0 1.0 164915.466104 392.0 1.0
718727.37000084 4295400.15000001 116.52500153 255.0 0.0 0.0 32.0 24.0 2.0 2.0 164915.466116 129.0 2.0
718727.35000038 4295400.08 116.65200043 255.0 0.0 0.0 32.0 25.0 1.0 1.0 164915.466127 290.0 1.0
718727.62999916 4295400.76999998 115.31700134 255.0 0.0 0.0 32.0 19.0 1.0 1.0 164915.472685 327.0 1.0
718727.52000046 4295400.52999997 115.76799774 255.0 0.0 0.0 32.0 21.0 1.0 1.0 164915.472727 273.0 1.0
718727.5 4295400.47 115.88300323 255.0 0.0 0.0 32.0 21.0 1.0 1.0 164915.472734 368.0 1.0
718727.46999931 4295400.40000001 116.00099945 255.0 0.0 0.0 32.0 22.0 2.0 2.0 164915.472746 141.0 2.0
718727.45000076 4295400.34 116.12000275 255.0 0.0 0.0 32.0 22.0 1.0 1.0 164915.472757 291.0 1.0
718727.39999962 4295400.20999999 116.36100006 255.0 0.0 0.0 32.0 23.0 2.0 2.0 164915.472776 104.0 2.0
718727.37000084 4295400.15000001 116.48799896 255.0 0.0 0.0 32.0 24.0 1.0 1.0 164915.472788 341.0 1.0
718727.35000038 4295400.08 116.61499786 255.0 0.0 0.0 32.0 25.0 1.0 1.0 164915.472795 288.0 1.0
718727.52000046 4295400.52999997 115.72399902 255.0 0.0 0.0 32.0 21.0 1.0 1.0 164915.479395 386.0 1.0
718727.48999977 4295400.46000001 115.83999634 255.0 0.0 0.0 32.0 21.0 1.0 1.0 164915.479406 648.0 1.0
718727.46999931 4295400.40000001 115.95700073 255.0 0.0 0.0 32.0 22.0 2.0 2.0 164915.479418 22.0 2.0
718727.45999908 4295400.34999999 116.06900024 255.0 0.0 0.0 32.0 22.0 2.0 2.0 164915.479425 79.0 2.0
718727.43000031 4295400.28 116.19000244 255.0 0.0 0.0 32.0 23.0 1.0 1.0 164915.479437 273.0 1.0
718727.35000038 4295400.08 116.56500244 255.0 0.0 0.0 32.0 24.0 1.0 1.0 164915.479467 348.0 1.0
718727.53000069 4295400.52999997 115.68599701 255.0 0.0 0.0 32.0 20.0 1.0 1.0 164915.486067 202.0 1.0
718727.48999977 4295400.46000001 115.80400085 255.0 0.0 0.0 32.0 21.0 1.0 1.0 164915.486074 291.0 1.0
718727.45999908 4295400.40000001 115.92299652 255.0 0.0 0.0 32.0 22.0 1.0 1.0 164915.486086 498.0 1.0
718727.45000076 4295400.34 116.03700256 255.0 0.0 0.0 32.0 22.0 1.0 1.0 164915.486097 296.0 1.0
718727.40999985 4295400.27000001 116.16000366 255.0 0.0 0.0 32.0 23.0 2.0 2.0 164915.486105 269.0 2.0
718727.37999916 4295400.2 116.28700256 255.0 0.0 0.0 32.0 23.0 2.0 2.0 164915.486116 221.0 2.0
718727.37999916 4295400.15000001 116.39800262 255.0 0.0 0.0 32.0 24.0 2.0 2.0 164915.486128 247.0 2.0
718727.35000038 4295400.08 116.52600098 255.0 0.0 0.0 32.0 24.0 1.0 1.0 164915.486135 415.0 1.0
718727.61000061 4295400.69999999 115.31099701 255.0 0.0 0.0 32.0 19.0 1.0 1.0 164915.492704 233.0 1.0
718727.47999954 4295400.44999999 115.76699829 255.0 0.0 0.0 32.0 21.0 1.0 1.0 164915.492746 448.0 1.0
718727.46999931 4295400.40000001 115.8769989 255.0 0.0 0.0 32.0 21.0 1.0 1.0 164915.492758 151.0 1.0
718727.44000053 4295400.34 115.99500275 255.0 0.0 0.0 32.0 22.0 1.0 1.0 164915.492765 319.0 1.0
718727.43000031 4295400.28 116.11199951 255.0 0.0 0.0 32.0 22.0 2.0 2.0 164915.492777 163.0 2.0
718727.39999962 4295400.20999999 116.23500061 255.0 0.0 0.0 32.0 23.0 2.0 2.0 164915.492784 290.0 2.0
718727.36000061 4295400.14 116.36199951 255.0 0.0 0.0 32.0 24.0 2.0 2.0 164915.492796 31.0 2.0
718727.35000038 4295400.08 116.48000336 255.0 0.0 0.0 32.0 24.0 1.0 1.0 164915.492807 148.0 1.0
718727.61000061 4295400.69999999 115.28099823 255.0 0.0 0.0 32.0 19.0 1.0 1.0 164915.499376 215.0 1.0
718727.73999977 4295400.67000002 115.43299866 255.0 0.0 0.0 32.0 20.0 1.0 1.0 164915.499395 126.0 1.0
718727.51000023 4295400.50999999 115.62000275 255.0 0.0 0.0 32.0 20.0 1.0 1.0 164915.499407 239.0 1.0
718727.48999977 4295400.44999999 115.73400116 255.0 0.0 0.0 32.0 21.0 1.0 1.0 164915.499414 425.0 1.0
718727.44000053 4295400.33000001 115.96600342 255.0 0.0 0.0 32.0 22.0 1.0 1.0 164915.499437 453.0 1.0
718727.39999962 4295400.25999999 116.08899689 255.0 0.0 0.0 32.0 22.0 2.0 2.0 164915.499445 190.0 2.0
718727.38999939 4295400.2 116.20600128 255.0 0.0 0.0 32.0 23.0 2.0 2.0 164915.499456 201.0 2.0
718727.34000015 4295400.07 116.4509964 255.0 0.0 0.0 32.0 24.0 1.0 1.0 164915.499475 269.0 1.0
718727.53000069 4295400.56999999 115.47000122 255.0 0.0 0.0 32.0 19.0 1.0 1.0 164915.506067 257.0 1.0
718727.48999977 4295400.44999999 115.69100189 255.0 0.0 0.0 32.0 21.0 1.0 1.0 164915.506086 394.0 1.0
718727.46999931 4295400.38999999 115.80400085 255.0 0.0 0.0 32.0 21.0 1.0 1.0 164915.506098 299.0 1.0
718727.44000053 4295400.33000001 115.92199707 255.0 0.0 0.0 32.0 22.0 1.0 1.0 164915.506105 343.0 1.0
718727.42000008 4295400.27000001 116.03700256 255.0 0.0 0.0 32.0 22.0 1.0 1.0 164915.506117 331.0 1.0
718727.39999962 4295400.20999999 116.15599823 255.0 0.0 0.0 32.0 23.0 1.0 1.0 164915.506124 104.0 1.0
718727.37999916 4295400.15000001 116.27600098 255.0 0.0 0.0 32.0 23.0 1.0 1.0 164915.506136 234.0 1.0
718728.06999969 4295401.39999998 113.98100281 255.0 0.0 0.0 32.0 12.0 1.0 1.0 164915.512594 102.0 1.0
718727.57999992 4295400.68000001 115.21800232 255.0 0.0 0.0 32.0 18.0 1.0 1.0 164915.512716 234.0 1.0
718727.55999947 4295400.62 115.3259964 255.0 0.0 0.0 32.0 19.0 1.0 1.0 164915.512728 360.0 1.0
718727.47999954 4295400.44 115.66100311 255.0 0.0 0.0 32.0 20.0 1.0 1.0 164915.512754 539.0 1.0
718727.46999931 4295400.38999999 115.76899719 255.0 0.0 0.0 32.0 21.0 1.0 1.0 164915.512766 424.0 1.0
718727.45000076 4295400.33000001 115.88300323 255.0 0.0 0.0 32.0 21.0 2.0 2.0 164915.512777 112.0 2.0
718727.42000008 4295400.25999999 116.00499725 255.0 0.0 0.0 32.0 22.0 1.0 1.0 164915.512785 424.0 1.0
718727.39999962 4295400.2 116.1210022 255.0 0.0 0.0 32.0 23.0 1.0 1.0 164915.512796 361.0 1.0
718727.35000038 4295400.13 116.25299835 255.0 0.0 0.0 32.0 23.0 2.0 2.0 164915.512808 36.0 2.0
718727.54999924 4295400.61000001 115.29399872 255.0 0.0 0.0 32.0 19.0 1.0 1.0 164915.519396 439.0 1.0
718727.53000069 4295400.56 115.40399933 255.0 0.0 0.0 32.0 19.0 1.0 1.0 164915.519407 409.0 1.0
718727.5 4295400.5 115.51399994 255.0 0.0 0.0 32.0 20.0 1.0 1.0 164915.519415 287.0 1.0
718727.45999908 4295400.38 115.73899841 255.0 0.0 0.0 32.0 21.0 1.0 1.0 164915.519438 428.0 1.0
718727.44000053 4295400.31999999 115.85199738 255.0 0.0 0.0 32.0 21.0 1.0 1.0 164915.519445 366.0 1.0
718727.43000031 4295400.27000001 115.96299744 255.0 0.0 0.0 32.0 22.0 2.0 2.0 164915.519457 254.0 2.0
718727.40999985 4295400.20999999 116.07900238 255.0 0.0 0.0 32.0 22.0 2.0 2.0 164915.519464 43.0 2.0
718727.37000084 4295400.14 116.20600128 255.0 0.0 0.0 32.0 23.0 1.0 1.0 164915.519476 349.0 1.0
718727.35000038 4295400.07 116.32900238 255.0 0.0 0.0 32.0 23.0 2.0 2.0 164915.519487 17.0 2.0
718727.89999962 4295400.76999998 115.14399719 255.0 0.0 0.0 32.0 18.0 1.0 1.0 164915.526068 192.0 1.0
718727.52000046 4295400.5 115.48000336 255.0 0.0 0.0 32.0 20.0 1.0 1.0 164915.526087 188.0 1.0
718727.47999954 4295400.43000001 115.59500122 255.0 0.0 0.0 32.0 20.0 1.0 1.0 164915.526094 470.0 1.0
718727.45999908 4295400.38 115.70600128 255.0 0.0 0.0 32.0 21.0 1.0 1.0 164915.526106 295.0 1.0
718727.43000031 4295400.31 115.8239975 255.0 0.0 0.0 32.0 21.0 1.0 1.0 164915.526117 391.0 1.0
718727.43000031 4295400.20999999 116.04000092 255.0 0.0 0.0 32.0 22.0 3.0 3.0 164915.526136 17.0 3.0
718727.36000061 4295400.13 116.17700195 255.0 0.0 0.0 32.0 23.0 1.0 1.0 164915.526148 348.0 1.0
718727.32999992 4295400.06 116.30400085 255.0 0.0 0.0 32.0 23.0 1.0 1.0 164915.526155 565.0 1.0
718727.59000015 4295400.67000002 115.11699677 255.0 0.0 0.0 32.0 18.0 1.0 1.0 164915.532724 188.0 1.0
718727.53000069 4295400.55000001 115.33499908 255.0 0.0 0.0 32.0 19.0 1.0 1.0 164915.532747 222.0 1.0
718727.5 4295400.49000001 115.44799805 255.0 0.0 0.0 32.0 19.0 1.0 1.0 164915.532755 536.0 1.0
718727.46999931 4295400.43000001 115.56099701 255.0 0.0 0.0 32.0 20.0 1.0 1.0 164915.532766 1087.0 1.0
718727.45000076 4295400.37 115.67299652 255.0 0.0 0.0 32.0 20.0 1.0 1.0 164915.532778 318.0 1.0
718727.44000053 4295400.31 115.78299713 255.0 0.0 0.0 32.0 21.0 1.0 1.0 164915.532785 316.0 1.0
718727.38999939 4295400.23999999 115.90899658 255.0 0.0 0.0 32.0 21.0 2.0 2.0 164915.532797 12.0 2.0
718727.37999916 4295400.19 116.02100372 255.0 0.0 0.0 32.0 22.0 2.0 2.0 164915.532804 55.0 2.0
718727.36000061 4295400.13 116.13700104 255.0 0.0 0.0 32.0 23.0 1.0 1.0 164915.532816 446.0 1.0
718727.35000038 4295400.07 116.25499725 255.0 0.0 0.0 32.0 23.0 2.0 2.0 164915.532827 86.0 2.0
718727.67000008 4295400.82999998 114.77999878 255.0 0.0 0.0 32.0 16.0 2.0 2.0 164915.539366 37.0 2.0
718727.52000046 4295400.54000002 115.31500244 255.0 0.0 0.0 32.0 19.0 1.0 1.0 164915.539415 335.0 1.0
718727.53000069 4295400.49000001 115.41400146 255.0 0.0 0.0 32.0 19.0 1.0 1.0 164915.539427 194.0 1.0
718727.46999931 4295400.41999999 115.53700256 255.0 0.0 0.0 32.0 20.0 1.0 1.0 164915.539434 461.0 1.0
718727.45000076 4295400.36000001 115.64600372 255.0 0.0 0.0 32.0 20.0 1.0 1.0 164915.539446 486.0 1.0
718727.42000008 4295400.30000001 115.76200104 255.0 0.0 0.0 32.0 21.0 1.0 1.0 164915.539457 478.0 1.0
718727.40999985 4295400.25 115.87200165 255.0 0.0 0.0 32.0 21.0 1.0 1.0 164915.539465 167.0 1.0
718727.36000061 4295400.12 116.11000061 255.0 0.0 0.0 32.0 22.0 1.0 1.0 164915.539488 405.0 1.0
718727.32999992 4295400.06 116.23300171 255.0 0.0 0.0 32.0 23.0 1.0 1.0 164915.539495 567.0 1.0
718727.54999924 4295400.58999997 115.16999817 255.0 0.0 0.0 32.0 18.0 1.0 1.0 164915.546076 259.0 1.0
718727.62999916 4295400.58999997 115.23899841 255.0 0.0 0.0 32.0 18.0 1.0 1.0 164915.546087 210.0 1.0
718727.45999908 4295400.41 115.5019989 255.0 0.0 0.0 32.0 20.0 1.0 1.0 164915.546106 554.0 1.0
718727.44000053 4295400.36000001 115.61299896 255.0 0.0 0.0 32.0 20.0 1.0 1.0 164915.546118 365.0 1.0
718727.43000031 4295400.30000001 115.72200012 255.0 0.0 0.0 32.0 21.0 1.0 1.0 164915.546125 327.0 1.0
718727.38999939 4295400.23999999 115.84100342 255.0 0.0 0.0 32.0 21.0 1.0 1.0 164915.546137 608.0 1.0
718727.36000061 4295400.12 116.06999969 255.0 0.0 0.0 32.0 22.0 1.0 1.0 164915.546156 437.0 1.0
718727.34000015 4295400.06 116.19000244 255.0 0.0 0.0 32.0 23.0 2.0 2.0 164915.546167 12.0 2.0
718727.48999977 4295400.47 115.36000061 255.0 0.0 0.0 32.0 19.0 1.0 1.0 164915.552767 217.0 1.0
718727.45999908 4295400.41 115.47299957 255.0 0.0 0.0 32.0 19.0 1.0 1.0 164915.552774 320.0 1.0
718727.45000076 4295400.34999999 115.58200073 255.0 0.0 0.0 32.0 20.0 1.0 1.0 164915.552786 444.0 1.0
718727.43000031 4295400.30000001 115.69100189 255.0 0.0 0.0 32.0 20.0 1.0 1.0 164915.552797 369.0 1.0
718727.39999962 4295400.23 115.80999756 255.0 0.0 0.0 32.0 21.0 1.0 1.0 164915.552805 261.0 1.0
718727.71999931 4295400.95999998 114.40000153 255.0 0.0 0.0 32.0 14.0 2.0 2.0 164915.559347 61.0 2.0
718727.55999947 4295400.63 115.00800323 255.0 0.0 0.0 32.0 17.0 1.0 1.0 164915.559404 198.0 1.0
718727.51000023 4295400.51999998 115.22100067 255.0 0.0 0.0 32.0 18.0 1.0 1.0 164915.559427 187.0 1.0
718727.5 4295400.47 115.3219986 255.0 0.0 0.0 32.0 19.0 1.0 1.0 164915.559435 241.0 1.0
718727.46999931 4295400.41 115.43499756 255.0 0.0 0.0 32.0 19.0 1.0 1.0 164915.559446 456.0 1.0
718727.43000031 4295400.34 115.55400085 255.0 0.0 0.0 32.0 20.0 2.0 2.0 164915.559458 223.0 2.0
718727.42000008 4295400.28999999 115.66100311 255.0 0.0 0.0 32.0 20.0 1.0 1.0 164915.559465 353.0 1.0
718727.39999962 4295400.23 115.77100372 255.0 0.0 0.0 32.0 21.0 1.0 1.0 164915.559477 498.0 1.0
718727.38999939 4295400.18000001 115.88500214 255.0 0.0 0.0 32.0 21.0 1.0 1.0 164915.559484 408.0 1.0
718727.36000061 4295400.11 116.00099945 255.0 0.0 0.0 32.0 22.0 1.0 1.0 164915.559496 220.0 1.0
718727.32999992 4295400.05 116.12599945 255.0 0.0 0.0 32.0 22.0 1.0 1.0 164915.559507 429.0 1.0
718727.54000092 4295400.56999999 115.08999634 255.0 0.0 0.0 32.0 17.0 1.0 1.0 164915.566088 238.0 1.0
718727.48999977 4295400.46000001 115.30200195 255.0 0.0 0.0 32.0 19.0 1.0 1.0 164915.566107 404.0 1.0
718727.47999954 4295400.41 115.40899658 255.0 0.0 0.0 32.0 19.0 1.0 1.0 164915.566114 230.0 1.0
718727.44000053 4295400.34 115.52400208 255.0 0.0 0.0 32.0 20.0 1.0 1.0 164915.566126 368.0 1.0
718727.43000031 4295400.28 115.63400269 255.0 0.0 0.0 32.0 20.0 2.0 2.0 164915.566137 79.0 2.0
718727.39999962 4295400.23 115.74700165 255.0 0.0 0.0 32.0 21.0 1.0 1.0 164915.566145 214.0 1.0
718727.37999916 4295400.16 115.86299896 255.0 0.0 0.0 32.0 21.0 1.0 1.0 164915.566156 430.0 1.0
718727.36000061 4295400.1 115.97899628 255.0 0.0 0.0 32.0 22.0 1.0 1.0 164915.566168 551.0 1.0
718727.45999908 4295400.40000001 115.3789978 255.0 0.0 0.0 32.0 19.0 1.0 1.0 164915.572786 351.0 1.0
718727.48999977 4295400.36000001 115.47200012 255.0 0.0 0.0 32.0 19.0 1.0 1.0 164915.572798 194.0 1.0
718727.42000008 4295400.28 115.59799957 255.0 0.0 0.0 32.0 20.0 1.0 1.0 164915.572805 257.0 1.0
718727.39999962 4295400.22 115.71199799 255.0 0.0 0.0 32.0 21.0 1.0 1.0 164915.572817 402.0 1.0
718727.37999916 4295400.16 115.8259964 255.0 0.0 0.0 32.0 21.0 1.0 1.0 164915.572824 499.0 1.0
718727.35000038 4295400.1 115.94300079 255.0 0.0 0.0 32.0 22.0 1.0 1.0 164915.572836 340.0 1.0
718727.56999969 4295400.66000003 114.82800293 255.0 0.0 0.0 32.0 16.0 1.0 1.0 164915.579405 265.0 1.0
718727.54000092 4295400.56 115.02899933 255.0 0.0 0.0 32.0 17.0 2.0 2.0 164915.579428 229.0 2.0
718727.51000023 4295400.5 115.13800049 255.0 0.0 0.0 32.0 18.0 1.0 1.0 164915.579435 385.0 1.0
718727.48999977 4295400.44999999 115.24299622 255.0 0.0 0.0 32.0 18.0 1.0 1.0 164915.579447 318.0 1.0
718727.45999908 4295400.38999999 115.35299683 255.0 0.0 0.0 32.0 19.0 1.0 1.0 164915.579454 319.0 1.0
718727.45000076 4295400.33000001 115.45999908 255.0 0.0 0.0 32.0 19.0 1.0 1.0 164915.579466 321.0 1.0
718727.42000008 4295400.28 115.57099915 255.0 0.0 0.0 32.0 20.0 1.0 1.0 164915.579477 372.0 1.0
718727.39999962 4295400.22 115.68399811 255.0 0.0 0.0 32.0 20.0 1.0 1.0 164915.579485 444.0 1.0
718727.37000084 4295400.16 115.79799652 255.0 0.0 0.0 32.0 21.0 1.0 1.0 164915.579496 571.0 1.0
718727.79999924 4295400.83999997 114.5490036 255.0 0.0 0.0 32.0 15.0 1.0 1.0 164915.586058 106.0 1.0
718727.52000046 4295400.55000001 115.00700378 255.0 0.0 0.0 32.0 17.0 1.0 1.0 164915.586096 232.0 1.0
718727.51000023 4295400.5 115.11000061 255.0 0.0 0.0 32.0 18.0 1.0 1.0 164915.586107 406.0 1.0
718727.47999954 4295400.44 115.21900177 255.0 0.0 0.0 32.0 18.0 2.0 2.0 164915.586115 30.0 2.0
718727.46999931 4295400.38999999 115.3219986 255.0 0.0 0.0 32.0 19.0 1.0 1.0 164915.586126 397.0 1.0
718727.44000053 4295400.33000001 115.43399811 255.0 0.0 0.0 32.0 19.0 1.0 1.0 164915.586138 591.0 1.0
718727.40999985 4295400.27000001 115.54699707 255.0 0.0 0.0 32.0 20.0 1.0 1.0 164915.586145 331.0 1.0
718727.39999962 4295400.20999999 115.65599823 255.0 0.0 0.0 32.0 20.0 1.0 1.0 164915.586157 417.0 1.0
718727.37999916 4295400.16 115.76599884 255.0 0.0 0.0 32.0 21.0 1.0 1.0 164915.586164 383.0 1.0
718727.36000061 4295400.09 115.88300323 255.0 0.0 0.0 32.0 21.0 1.0 1.0 164915.586176 347.0 1.0
718728.0 4295401.12 114.03500366 255.0 0.0 0.0 32.0 12.0 1.0 1.0 164915.592676 151.0 1.0
718727.52000046 4295400.54000002 114.98500061 255.0 0.0 0.0 32.0 17.0 1.0 1.0 164915.592768 229.0 1.0
718727.47999954 4295400.43000001 115.19200134 255.0 0.0 0.0 32.0 18.0 1.0 1.0 164915.592787 214.0 1.0
718727.45999908 4295400.38 115.30000305 255.0 0.0 0.0 32.0 18.0 1.0 1.0 164915.592794 538.0 1.0
718727.43000031 4295400.31999999 115.41100311 255.0 0.0 0.0 32.0 19.0 1.0 1.0 164915.592806 198.0 1.0
718727.40999985 4295400.25999999 115.52100372 255.0 0.0 0.0 32.0 20.0 1.0 1.0 164915.592817 330.0 1.0
718727.40999985 4295400.20999999 115.62599945 255.0 0.0 0.0 32.0 20.0 1.0 1.0 164915.592825 257.0 1.0
718727.37999916 4295400.15000001 115.73999786 255.0 0.0 0.0 32.0 21.0 1.0 1.0 164915.592836 169.0 1.0
718727.35000038 4295400.09 115.85700226 255.0 0.0 0.0 32.0 21.0 1.0 1.0 164915.592848 388.0 1.0
718727.51000023 4295400.52999997 114.95899963 255.0 0.0 0.0 32.0 17.0 1.0 1.0 164915.599436 343.0 1.0
718727.48999977 4295400.47999999 115.06300354 255.0 0.0 0.0 32.0 17.0 1.0 1.0 164915.599447 333.0 1.0
718727.47999954 4295400.43000001 115.16500092 255.0 0.0 0.0 32.0 18.0 2.0 2.0 164915.599455 281.0 2.0
718727.45000076 4295400.37 115.27300262 255.0 0.0 0.0 32.0 18.0 1.0 1.0 164915.599466 223.0 1.0
718727.44000053 4295400.31999999 115.37799835 255.0 0.0 0.0 32.0 19.0 1.0 1.0 164915.599478 373.0 1.0
718727.60000038 4295400.34999999 115.41999817 255.0 0.0 0.0 32.0 19.0 2.0 2.0 164915.599485 30.0 2.0
718727.37999916 4295400.2 115.60399628 255.0 0.0 0.0 32.0 20.0 1.0 1.0 164915.599497 371.0 1.0
718727.37000084 4295400.14 115.71399689 255.0 0.0 0.0 32.0 20.0 2.0 2.0 164915.599504 119.0 2.0
718727.35000038 4295400.08 115.82800293 255.0 0.0 0.0 32.0 21.0 1.0 1.0 164915.599516 416.0 1.0
718727.55999947 4295400.63 114.73300171 255.0 0.0 0.0 32.0 15.0 2.0 2.0 164915.606085 108.0 2.0
718727.51000023 4295400.51999998 114.93699646 255.0 0.0 0.0 32.0 17.0 1.0 1.0 164915.606108 176.0 1.0
718727.51000023 4295400.47999999 115.03600311 255.0 0.0 0.0 32.0 17.0 1.0 1.0 164915.606115 199.0 1.0
718727.47999954 4295400.41999999 115.14199829 255.0 0.0 0.0 32.0 18.0 1.0 1.0 164915.606127 333.0 1.0
718727.45999908 4295400.37 115.2480011 255.0 0.0 0.0 32.0 18.0 1.0 1.0 164915.606134 319.0 1.0
718727.43000031 4295400.31 115.35900116 255.0 0.0 0.0 32.0 19.0 1.0 1.0 164915.606146 503.0 1.0
718727.40999985 4295400.25 115.46600342 255.0 0.0 0.0 32.0 19.0 2.0 2.0 164915.606157 40.0 2.0
718727.37999916 4295400.19 115.58000183 255.0 0.0 0.0 32.0 20.0 1.0 1.0 164915.606165 459.0 1.0
718727.36000061 4295400.13 115.69300079 255.0 0.0 0.0 32.0 20.0 2.0 2.0 164915.606176 149.0 2.0
718727.34000015 4295400.07 115.80699921 255.0 0.0 0.0 32.0 21.0 1.0 1.0 164915.606188 334.0 1.0
718727.48999977 4295400.47 115.01000214 255.0 0.0 0.0 32.0 17.0 1.0 1.0 164915.612787 196.0 1.0
718727.45999908 4295400.36000001 115.21600342 255.0 0.0 0.0 32.0 18.0 1.0 1.0 164915.612806 242.0 1.0
718727.42000008 4295400.30000001 115.33000183 255.0 0.0 0.0 32.0 19.0 1.0 1.0 164915.612818 461.0 1.0
718727.39999962 4295400.23999999 115.43900299 255.0 0.0 0.0 32.0 19.0 2.0 2.0 164915.612825 213.0 2.0
718727.38999939 4295400.19 115.54499817 255.0 0.0 0.0 32.0 20.0 1.0 1.0 164915.612837 284.0 1.0
718727.37000084 4295400.13 115.65799713 255.0 0.0 0.0 32.0 20.0 1.0 1.0 164915.612844 392.0 1.0
718727.34000015 4295400.07 115.77100372 255.0 0.0 0.0 32.0 21.0 1.0 1.0 164915.612856 472.0 1.0
718727.62999916 4295400.77999997 114.38300323 255.0 0.0 0.0 32.0 14.0 2.0 2.0 164915.619394 67.0 2.0
718727.45000076 4295400.34999999 115.19599915 255.0 0.0 0.0 32.0 18.0 1.0 1.0 164915.619474 400.0 1.0
718727.39999962 4295400.28 115.31199646 255.0 0.0 0.0 32.0 18.0 2.0 2.0 164915.619486 491.0 2.0
718727.39999962 4295400.19 115.51499939 255.0 0.0 0.0 32.0 19.0 2.0 2.0 164915.619505 230.0 2.0
718727.37000084 4295400.13 115.63300323 255.0 0.0 0.0 32.0 20.0 1.0 1.0 164915.619516 379.0 1.0
718727.34000015 4295400.07 115.7460022 255.0 0.0 0.0 32.0 21.0 1.0 1.0 164915.619528 447.0 1.0
718727.54999924 4295400.61000001 114.65599823 255.0 0.0 0.0 32.0 15.0 2.0 2.0 164915.626097 47.0 2.0
718727.51000023 4295400.50999999 114.85500336 255.0 0.0 0.0 32.0 16.0 1.0 1.0 164915.626116 77.0 1.0
718727.47999954 4295400.44999999 114.96099854 255.0 0.0 0.0 32.0 17.0 1.0 1.0 164915.626127 412.0 1.0
718727.46999931 4295400.40000001 115.06199646 255.0 0.0 0.0 32.0 17.0 1.0 1.0 164915.626135 346.0 1.0
718727.44000053 4295400.34999999 115.16799927 255.0 0.0 0.0 32.0 18.0 1.0 1.0 164915.626146 532.0 1.0
718727.42000008 4295400.28999999 115.27700043 255.0 0.0 0.0 32.0 18.0 1.0 1.0 164915.626158 189.0 1.0
718727.39999962 4295400.23 115.38300323 255.0 0.0 0.0 32.0 19.0 1.0 1.0 164915.626165 423.0 1.0
718727.37999916 4295400.18000001 115.4940033 255.0 0.0 0.0 32.0 19.0 1.0 1.0 164915.626177 350.0 1.0
718727.35000038 4295400.12 115.60600281 255.0 0.0 0.0 32.0 20.0 1.0 1.0 164915.626184 294.0 1.0
718727.34000015 4295400.06 115.71600342 255.0 0.0 0.0 32.0 20.0 1.0 1.0 164915.626196 368.0 1.0
718727.57999992 4295400.66000003 114.53600311 255.0 0.0 0.0 32.0 14.0 2.0 2.0 164915.632757 131.0 2.0
718727.46999931 4295400.44 114.94300079 255.0 0.0 0.0 32.0 16.0 1.0 1.0 164915.632795 469.0 1.0
718727.46999931 4295400.38999999 115.04100037 255.0 0.0 0.0 32.0 17.0 1.0 1.0 164915.632807 391.0 1.0
718727.44000053 4295400.34 115.14900208 255.0 0.0 0.0 32.0 18.0 1.0 1.0 164915.632814 315.0 1.0
718727.43000031 4295400.28 115.2519989 255.0 0.0 0.0 32.0 18.0 1.0 1.0 164915.632826 447.0 1.0
718727.38999939 4295400.22 115.36599731 255.0 0.0 0.0 32.0 19.0 1.0 1.0 164915.632837 484.0 1.0
718727.37999916 4295400.17 115.47299957 255.0 0.0 0.0 32.0 19.0 1.0 1.0 164915.632845 302.0 1.0
718727.37000084 4295400.12 115.57700348 255.0 0.0 0.0 32.0 20.0 1.0 1.0 164915.632856 249.0 1.0
718727.59000015 4295400.69999999 114.41200256 255.0 0.0 0.0 32.0 14.0 1.0 1.0 164915.639418 482.0 1.0
718727.53000069 4295400.55000001 114.70500183 255.0 0.0 0.0 32.0 15.0 1.0 1.0 164915.639444 77.0 1.0
718727.51000023 4295400.5 114.80599976 255.0 0.0 0.0 32.0 16.0 2.0 2.0 164915.639456 86.0 2.0
718727.59000015 4295400.49000001 114.8769989 255.0 0.0 0.0 32.0 16.0 2.0 2.0 164915.639467 96.0 2.0
718727.47999954 4295400.38999999 115.00900269 255.0 0.0 0.0 32.0 17.0 1.0 1.0 164915.639475 191.0 1.0
718727.45000076 4295400.34 115.11499786 255.0 0.0 0.0 32.0 17.0 1.0 1.0 164915.639486 250.0 1.0
718727.42000008 4295400.28 115.22399902 255.0 0.0 0.0 32.0 18.0 1.0 1.0 164915.639498 284.0 1.0
718727.37999916 4295400.20999999 115.33799744 255.0 0.0 0.0 32.0 18.0 2.0 2.0 164915.639505 189.0 2.0
718727.37999916 4295400.17 115.43900299 255.0 0.0 0.0 32.0 19.0 1.0 1.0 164915.639517 585.0 1.0
718727.34000015 4295400.1 115.55500031 255.0 0.0 0.0 32.0 19.0 2.0 2.0 164915.639524 107.0 2.0
718727.32999992 4295400.05 115.66300201 255.0 0.0 0.0 32.0 20.0 1.0 1.0 164915.639536 615.0 1.0
718727.52000046 4295400.54000002 114.68699646 255.0 0.0 0.0 32.0 15.0 1.0 1.0 164915.646116 264.0 1.0
718727.48999977 4295400.47999999 114.79000092 255.0 0.0 0.0 32.0 16.0 2.0 2.0 164915.646128 53.0 2.0
718727.47999954 4295400.43000001 114.88899994 255.0 0.0 0.0 32.0 16.0 2.0 2.0 164915.646135 267.0 2.0
718727.45000076 4295400.37 114.99299622 255.0 0.0 0.0 32.0 17.0 1.0 1.0 164915.646147 450.0 1.0
718727.44000053 4295400.33000001 115.09400177 255.0 0.0 0.0 32.0 17.0 2.0 2.0 164915.646154 116.0 2.0
718727.40999985 4295400.27000001 115.20200348 255.0 0.0 0.0 32.0 18.0 1.0 1.0 164915.646166 667.0 1.0
718727.39999962 4295400.22 115.30599976 255.0 0.0 0.0 32.0 18.0 1.0 1.0 164915.646177 368.0 1.0
718727.37000084 4295400.16 115.41600037 255.0 0.0 0.0 32.0 19.0 1.0 1.0 164915.646185 423.0 1.0
718727.36000061 4295400.1 115.52400208 255.0 0.0 0.0 32.0 19.0 1.0 1.0 164915.646196 411.0 1.0
718727.54000092 4295400.57999998 114.56300354 255.0 0.0 0.0 32.0 14.0 1.0 1.0 164915.652777 404.0 1.0
718727.54999924 4295400.5 114.7460022 255.0 0.0 0.0 32.0 15.0 3.0 3.0 164915.652796 21.0 3.0
718727.48999977 4295400.38999999 114.95600128 255.0 0.0 0.0 32.0 16.0 1.0 1.0 164915.652815 368.0 1.0
718727.40999985 4295400.25999999 115.1780014 255.0 0.0 0.0 32.0 18.0 1.0 1.0 164915.652838 531.0 1.0
718727.38999939 4295400.20999999 115.28199768 255.0 0.0 0.0 32.0 18.0 2.0 2.0 164915.652845 296.0 2.0
718727.36000061 4295400.1 115.49700165 255.0 0.0 0.0 32.0 19.0 2.0 2.0 164915.652864 284.0 2.0
718727.51000023 4295400.51999998 114.64099884 255.0 0.0 0.0 32.0 15.0 1.0 1.0 164915.659456 346.0 1.0
718727.47999954 4295400.46000001 114.74500275 255.0 0.0 0.0 32.0 15.0 1.0 1.0 164915.659468 286.0 1.0
718727.47999954 4295400.41999999 114.83899689 255.0 0.0 0.0 32.0 16.0 1.0 1.0 164915.659475 297.0 1.0
718727.45999908 4295400.37 114.94100189 255.0 0.0 0.0 32.0 16.0 2.0 2.0 164915.659487 58.0 2.0
718727.39999962 4295400.25 115.15599823 255.0 0.0 0.0 32.0 17.0 1.0 1.0 164915.659506 476.0 1.0
718727.38999939 4295400.2 115.25900269 255.0 0.0 0.0 32.0 18.0 1.0 1.0 164915.659517 397.0 1.0
718727.35000038 4295400.09 115.47499847 255.0 0.0 0.0 32.0 19.0 1.0 1.0 164915.659536 298.0 1.0
718727.60000038 4295400.72000003 114.22599792 255.0 0.0 0.0 32.0 12.0 2.0 2.0 164915.666086 51.0 2.0
718727.54999924 4295400.61000001 114.41999817 255.0 0.0 0.0 32.0 13.0 1.0 1.0 164915.666105 506.0 1.0
718727.51000023 4295400.50999999 114.61699677 255.0 0.0 0.0 32.0 15.0 1.0 1.0 164915.666124 285.0 1.0
718727.47999954 4295400.44999999 114.71900177 255.0 0.0 0.0 32.0 15.0 1.0 1.0 164915.666136 339.0 1.0
718727.45999908 4295400.40000001 114.81999969 255.0 0.0 0.0 32.0 16.0 1.0 1.0 164915.666147 536.0 1.0
718727.45999908 4295400.36000001 114.91600037 255.0 0.0 0.0 32.0 16.0 1.0 1.0 164915.666155 296.0 1.0
718727.42000008 4295400.30000001 115.02500153 255.0 0.0 0.0 32.0 17.0 1.0 1.0 164915.666166 652.0 1.0
718727.40999985 4295400.25 115.125 255.0 0.0 0.0 32.0 17.0 1.0 1.0 164915.666178 470.0 1.0
718727.38999939 4295400.19 115.23300171 255.0 0.0 0.0 32.0 18.0 1.0 1.0 164915.666185 281.0 1.0
718727.36000061 4295400.13 115.34100342 255.0 0.0 0.0 32.0 18.0 2.0 2.0 164915.666197 23.0 2.0
718727.35000038 4295400.08 115.4469986 255.0 0.0 0.0 32.0 19.0 2.0 2.0 164915.666204 58.0 2.0
718727.43000031 4295400.34 114.90299988 255.0 0.0 0.0 32.0 16.0 1.0 1.0 164915.672827 331.0 1.0
718727.39999962 4295400.23999999 115.10800171 255.0 0.0 0.0 32.0 17.0 1.0 1.0 164915.672846 500.0 1.0
718727.37000084 4295400.18000001 115.21700287 255.0 0.0 0.0 32.0 18.0 1.0 1.0 164915.672857 622.0 1.0
718727.32999992 4295400.11 115.33100128 255.0 0.0 0.0 32.0 18.0 2.0 2.0 164915.672865 13.0 2.0
718727.34000015 4295400.07 115.43000031 255.0 0.0 0.0 32.0 19.0 1.0 1.0 164915.672876 485.0 1.0
718727.56999969 4295400.64999998 114.27700043 255.0 0.0 0.0 32.0 13.0 2.0 2.0 164915.679438 255.0 2.0
718727.54000092 4295400.58999997 114.37599945 255.0 0.0 0.0 32.0 13.0 1.0 1.0 164915.679445 476.0 1.0
718727.47999954 4295400.44 114.66899872 255.0 0.0 0.0 32.0 15.0 2.0 2.0 164915.679476 127.0 2.0
718727.64999962 4295400.43000001 114.80699921 255.0 0.0 0.0 32.0 16.0 2.0 2.0 164915.679495 77.0 2.0
718727.44000053 4295400.28999999 114.96900177 255.0 0.0 0.0 32.0 16.0 2.0 2.0 164915.679506 146.0 2.0
718727.40999985 4295400.23999999 115.0739975 255.0 0.0 0.0 32.0 17.0 1.0 1.0 164915.679518 191.0 1.0
718727.37999916 4295400.18000001 115.18199921 255.0 0.0 0.0 32.0 17.0 1.0 1.0 164915.679525 471.0 1.0
718727.35000038 4295400.07 115.39499664 255.0 0.0 0.0 32.0 19.0 1.0 1.0 164915.679544 435.0 1.0
718727.52000046 4295400.54000002 114.4509964 255.0 0.0 0.0 32.0 14.0 1.0 1.0 164915.686125 359.0 1.0
718727.47999954 4295400.44 114.64700317 255.0 0.0 0.0 32.0 15.0 1.0 1.0 164915.686148 204.0 1.0
718727.46999931 4295400.38999999 114.7460022 255.0 0.0 0.0 32.0 15.0 1.0 1.0 164915.686155 190.0 1.0
718727.44000053 4295400.33000001 114.84799957 255.0 0.0 0.0 32.0 16.0 2.0 2.0 164915.686167 46.0 2.0
718727.40999985 4295400.27000001 114.95500183 255.0 0.0 0.0 32.0 16.0 4.0 4.0 164915.686174 21.0 4.0
718727.39999962 4295400.22 115.05599976 255.0 0.0 0.0 32.0 17.0 1.0 1.0 164915.686186 344.0 1.0
718727.38999939 4295400.17 115.15799713 255.0 0.0 0.0 32.0 17.0 1.0 1.0 164915.686197 421.0 1.0
718727.35000038 4295400.11 115.26999664 255.0 0.0 0.0 32.0 18.0 1.0 1.0 164915.686205 403.0 1.0
718727.32999992 4295400.06 115.37599945 255.0 0.0 0.0 32.0 18.0 1.0 1.0 164915.686216 789.0 1.0
718727.55999947 4295400.63 114.23600006 255.0 0.0 0.0 32.0 12.0 1.0 1.0 164915.692778 429.0 1.0
718727.51000023 4295400.52999997 114.42900085 255.0 0.0 0.0 32.0 13.0 1.0 1.0 164915.692797 496.0 1.0
718727.48999977 4295400.47 114.52799988 255.0 0.0 0.0 32.0 14.0 2.0 2.0 164915.692804 133.0 2.0
718727.5 4295400.38999999 114.71199799 255.0 0.0 0.0 32.0 15.0 2.0 2.0 164915.692827 56.0 2.0
718727.51000023 4295400.36000001 114.8010025 255.0 0.0 0.0 32.0 16.0 2.0 2.0 164915.692835 33.0 2.0
718727.63999939 4295400.37 114.85500336 255.0 0.0 0.0 32.0 16.0 1.0 1.0 164915.692846 107.0 1.0
718727.37000084 4295400.2 115.03700256 255.0 0.0 0.0 32.0 17.0 2.0 2.0 164915.692858 13.0 2.0
718727.37000084 4295400.16 115.13700104 255.0 0.0 0.0 32.0 17.0 1.0 1.0 164915.692865 329.0 1.0
718727.35000038 4295400.1 115.24199677 255.0 0.0 0.0 32.0 18.0 2.0 2.0 164915.692877 376.0 2.0
718727.34000015 4295400.05 115.34500122 255.0 0.0 0.0 32.0 18.0 2.0 2.0 164915.692884 48.0 2.0
718727.54000092 4295400.56999999 114.31099701 255.0 0.0 0.0 32.0 13.0 1.0 1.0 164915.699457 307.0 1.0
718727.51000023 4295400.51999998 114.41000366 255.0 0.0 0.0 32.0 13.0 1.0 1.0 164915.699465 390.0 1.0
718727.48999977 4295400.46000001 114.50900269 255.0 0.0 0.0 32.0 14.0 2.0 2.0 164915.699476 265.0 2.0
718727.67000008 4295400.5 114.5510025 255.0 0.0 0.0 32.0 14.0 2.0 2.0 164915.699488 158.0 2.0
718727.44000053 4295400.36000001 114.70899963 255.0 0.0 0.0 32.0 15.0 2.0 2.0 164915.699495 42.0 2.0
718727.40999985 4295400.25999999 114.90699768 255.0 0.0 0.0 32.0 16.0 1.0 1.0 164915.699514 526.0 1.0
718727.39999962 4295400.20999999 115.00800323 255.0 0.0 0.0 32.0 16.0 1.0 1.0 164915.699526 235.0 1.0
718727.37000084 4295400.15000001 115.11399841 255.0 0.0 0.0 32.0 17.0 1.0 1.0 164915.699537 392.0 1.0
718727.35000038 4295400.1 115.22000122 255.0 0.0 0.0 32.0 18.0 2.0 2.0 164915.699545 313.0 2.0
718727.52000046 4295400.50999999 114.37999725 255.0 0.0 0.0 32.0 13.0 2.0 2.0 164915.706137 248.0 2.0
718727.48999977 4295400.46000001 114.47799683 255.0 0.0 0.0 32.0 14.0 2.0 2.0 164915.706144 37.0 2.0
718727.47999954 4295400.41999999 114.5719986 255.0 0.0 0.0 32.0 14.0 1.0 1.0 164915.706156 312.0 1.0
718727.40999985 4295400.25 114.87799835 255.0 0.0 0.0 32.0 16.0 1.0 1.0 164915.706186 350.0 1.0
718727.37999916 4295400.15000001 115.08000183 255.0 0.0 0.0 32.0 17.0 2.0 2.0 164915.706205 100.0 2.0
718727.52000046 4295400.55000001 114.26799774 255.0 0.0 0.0 32.0 12.0 2.0 2.0 164915.712797 255.0 2.0
718727.52000046 4295400.46000001 114.44999695 255.0 0.0 0.0 32.0 13.0 2.0 2.0 164915.712816 197.0 2.0
718727.45999908 4295400.38999999 114.55899811 255.0 0.0 0.0 32.0 14.0 2.0 2.0 164915.712828 59.0 2.0
718727.40999985 4295400.28999999 114.76200104 255.0 0.0 0.0 32.0 15.0 2.0 2.0 164915.712847 118.0 2.0
718727.38999939 4295400.19 114.95899963 255.0 0.0 0.0 32.0 16.0 1.0 1.0 164915.712866 251.0 1.0
718727.37999916 4295400.14 115.05999756 255.0 0.0 0.0 32.0 17.0 1.0 1.0 164915.712877 232.0 1.0
718727.36000061 4295400.09 115.16400146 255.0 0.0 0.0 32.0 17.0 2.0 2.0 164915.712885 71.0 2.0
718727.52000046 4295400.5 114.33000183 255.0 0.0 0.0 32.0 13.0 1.0 1.0 164915.719477 272.0 1.0
718727.5 4295400.44999999 114.42700195 255.0 0.0 0.0 32.0 13.0 1.0 1.0 164915.719484 380.0 1.0
718727.46999931 4295400.38999999 114.52600098 255.0 0.0 0.0 32.0 14.0 1.0 1.0 164915.719496 266.0 1.0
718727.45000076 4295400.34 114.62400055 255.0 0.0 0.0 32.0 14.0 1.0 1.0 164915.719507 282.0 1.0
718727.42000008 4295400.28999999 114.72599792 255.0 0.0 0.0 32.0 15.0 2.0 2.0 164915.719515 64.0 2.0
718727.40999985 4295400.23999999 114.8259964 255.0 0.0 0.0 32.0 15.0 2.0 2.0 164915.719526 273.0 2.0
718727.37999916 4295400.18000001 114.93199921 255.0 0.0 0.0 32.0 16.0 2.0 2.0 164915.719538 160.0 2.0
718727.37000084 4295400.13 115.02999878 255.0 0.0 0.0 32.0 16.0 1.0 1.0 164915.719545 342.0 1.0
718727.35000038 4295400.08 115.13500214 255.0 0.0 0.0 32.0 17.0 1.0 1.0 164915.719557 324.0 1.0
718727.52000046 4295400.52999997 114.22000122 255.0 0.0 0.0 32.0 12.0 1.0 1.0 164915.726137 359.0 1.0
718727.52000046 4295400.49000001 114.31099701 255.0 0.0 0.0 32.0 13.0 1.0 1.0 164915.726145 314.0 1.0
718727.47999954 4295400.43000001 114.41300201 255.0 0.0 0.0 32.0 13.0 1.0 1.0 164915.726156 405.0 1.0
718727.46999931 4295400.38 114.50700378 255.0 0.0 0.0 32.0 14.0 1.0 1.0 164915.726168 285.0 1.0
718727.45000076 4295400.33000001 114.60299683 255.0 0.0 0.0 32.0 14.0 2.0 2.0 164915.726175 63.0 2.0
718727.39999962 4295400.22 114.80599976 255.0 0.0 0.0 32.0 15.0 3.0 3.0 164915.726194 78.0 3.0
718727.38999939 4295400.18000001 114.90499878 255.0 0.0 0.0 32.0 16.0 1.0 1.0 164915.726206 252.0 1.0
718727.36000061 4295400.12 115.01100159 255.0 0.0 0.0 32.0 16.0 1.0 1.0 164915.726217 223.0 1.0
718727.35000038 4295400.07 115.11199951 255.0 0.0 0.0 32.0 17.0 2.0 2.0 164915.726225 82.0 2.0
718727.51000023 4295400.47999999 114.28900146 255.0 0.0 0.0 32.0 12.0 1.0 1.0 164915.732817 382.0 1.0
718727.47999954 4295400.41999999 114.38800049 255.0 0.0 0.0 32.0 13.0 1.0 1.0 164915.732824 447.0 1.0
718727.45999908 4295400.37 114.48400116 255.0 0.0 0.0 32.0 13.0 2.0 2.0 164915.732836 37.0 2.0
718727.44000053 4295400.31999999 114.58100128 255.0 0.0 0.0 32.0 14.0 1.0 1.0 164915.732847 301.0 1.0
718727.43000031 4295400.27000001 114.6780014 255.0 0.0 0.0 32.0 15.0 1.0 1.0 164915.732855 201.0 1.0
718727.37999916 4295400.20999999 114.78800201 255.0 0.0 0.0 32.0 15.0 3.0 3.0 164915.732866 23.0 3.0
718727.38999939 4295400.17 114.87999725 255.0 0.0 0.0 32.0 16.0 1.0 1.0 164915.732878 283.0 1.0
718727.36000061 4295400.11 114.98600006 255.0 0.0 0.0 32.0 16.0 1.0 1.0 164915.732885 418.0 1.0
718727.70000076 4295400.74000001 113.79299927 255.0 0.0 0.0 32.0 10.0 1.0 1.0 164915.739435 138.0 1.0
718727.52000046 4295400.47 114.26899719 255.0 0.0 0.0 32.0 12.0 2.0 2.0 164915.739485 358.0 2.0
718727.47999954 4295400.41 114.36799622 255.0 0.0 0.0 32.0 13.0 1.0 1.0 164915.739496 432.0 1.0
718727.45999908 4295400.36000001 114.46399689 255.0 0.0 0.0 32.0 13.0 1.0 1.0 164915.739508 74.0 1.0
718727.45000076 4295400.31 114.56099701 255.0 0.0 0.0 32.0 14.0 1.0 1.0 164915.739515 248.0 1.0
718727.42000008 4295400.25999999 114.66200256 255.0 0.0 0.0 32.0 14.0 2.0 2.0 164915.739527 14.0 2.0
718727.36000061 4295400.19 114.77500153 255.0 0.0 0.0 32.0 15.0 2.0 2.0 164915.739534 11.0 2.0
718727.37000084 4295400.15000001 114.86599731 255.0 0.0 0.0 32.0 16.0 1.0 1.0 164915.739546 567.0 1.0
718727.36000061 4295400.1 114.96499634 255.0 0.0 0.0 32.0 16.0 1.0 1.0 164915.739557 290.0 1.0
718727.52000046 4295400.38 114.42199707 255.0 0.0 0.0 32.0 13.0 1.0 1.0 164915.746176 144.0 1.0
718727.45000076 4295400.31 114.53099823 255.0 0.0 0.0 32.0 14.0 2.0 2.0 164915.746187 65.0 2.0
718727.42000008 4295400.25 114.63300323 255.0 0.0 0.0 32.0 14.0 1.0 1.0 164915.746195 430.0 1.0
718727.37000084 4295400.14 114.83699799 255.0 0.0 0.0 32.0 15.0 1.0 1.0 164915.746218 625.0 1.0
718727.29999924 4295400.07 114.95400238 255.0 0.0 0.0 32.0 16.0 2.0 2.0 164915.746225 7.0 2.0
718727.47999954 4295400.44 114.23400116 255.0 0.0 0.0 32.0 12.0 1.0 1.0 164915.752825 597.0 1.0
718727.45000076 4295400.38 114.33100128 255.0 0.0 0.0 32.0 13.0 2.0 2.0 164915.752836 20.0 2.0
718727.45000076 4295400.34 114.42299652 255.0 0.0 0.0 32.0 13.0 1.0 1.0 164915.752848 320.0 1.0
718727.42000008 4295400.28999999 114.52200317 255.0 0.0 0.0 32.0 14.0 2.0 2.0 164915.752855 111.0 2.0
718727.40999985 4295400.23999999 114.61699677 255.0 0.0 0.0 32.0 14.0 1.0 1.0 164915.752867 379.0 1.0
718727.38999939 4295400.19 114.71800232 255.0 0.0 0.0 32.0 15.0 1.0 1.0 164915.752874 793.0 1.0
718727.31999969 4295400.07 114.92900085 255.0 0.0 0.0 32.0 16.0 2.0 2.0 164915.752897 123.0 2.0
718727.48999977 4295400.43000001 114.20600128 255.0 0.0 0.0 32.0 12.0 1.0 1.0 164915.759497 394.0 1.0
718727.45000076 4295400.33000001 114.39600372 255.0 0.0 0.0 32.0 13.0 1.0 1.0 164915.759516 605.0 1.0
718727.40999985 4295400.23 114.58999634 255.0 0.0 0.0 32.0 14.0 2.0 2.0 164915.759535 229.0 2.0
718727.38999939 4295400.18000001 114.69100189 255.0 0.0 0.0 32.0 14.0 1.0 1.0 164915.759546 394.0 1.0
718727.36000061 4295400.12 114.79299927 255.0 0.0 0.0 32.0 15.0 1.0 1.0 164915.759558 508.0 1.0
718727.47999954 4295400.41999999 114.19100189 255.0 0.0 0.0 32.0 12.0 1.0 1.0 164915.766165 193.0 1.0
718727.46999931 4295400.37 114.28399658 255.0 0.0 0.0 32.0 12.0 1.0 1.0 164915.766176 295.0 1.0
718727.44000053 4295400.31999999 114.3809967 255.0 0.0 0.0 32.0 13.0 1.0 1.0 164915.766188 384.0 1.0
718727.37000084 4295400.16 114.6760025 255.0 0.0 0.0 32.0 14.0 1.0 1.0 164915.766214 166.0 1.0
718727.32999992 4295400.06 114.8769989 255.0 0.0 0.0 32.0 15.0 1.0 1.0 164915.766237 353.0 1.0
718727.46999931 4295400.36000001 114.2559967 255.0 0.0 0.0 32.0 12.0 1.0 1.0 164915.772844 274.0 1.0
718727.42000008 4295400.25999999 114.44999695 255.0 0.0 0.0 32.0 13.0 1.0 1.0 164915.772867 507.0 1.0
718727.40999985 4295400.20999999 114.54599762 255.0 0.0 0.0 32.0 14.0 1.0 1.0 164915.772875 258.0 1.0
718727.37000084 4295400.15000001 114.64900208 255.0 0.0 0.0 32.0 14.0 2.0 2.0 164915.772886 145.0 2.0
718727.36000061 4295400.11 114.7460022 255.0 0.0 0.0 32.0 15.0 1.0 1.0 164915.772898 341.0 1.0
718727.32999992 4295400.05 114.84799957 255.0 0.0 0.0 32.0 15.0 2.0 2.0 164915.772905 136.0 2.0
718727.45999908 4295400.34999999 114.23899841 255.0 0.0 0.0 32.0 12.0 1.0 1.0 164915.779516 320.0 1.0
718727.42000008 4295400.28999999 114.33899689 255.0 0.0 0.0 32.0 12.0 2.0 2.0 164915.779528 155.0 2.0
718727.42000008 4295400.25 114.43099976 255.0 0.0 0.0 32.0 13.0 2.0 2.0 164915.779535 19.0 2.0
718727.38999939 4295400.19 114.52999878 255.0 0.0 0.0 32.0 13.0 2.0 2.0 164915.779547 72.0 2.0
718727.36000061 4295400.14 114.62999725 255.0 0.0 0.0 32.0 14.0 1.0 1.0 164915.779554 275.0 1.0
718727.35000038 4295400.09 114.72699738 255.0 0.0 0.0 32.0 15.0 1.0 1.0 164915.779566 415.0 1.0
718727.57999992 4295400.58999997 113.75299835 255.0 0.0 0.0 32.0 9.0 1.0 1.0 164915.786135 124.0 1.0
718727.45000076 4295400.34 114.21900177 255.0 0.0 0.0 32.0 12.0 1.0 1.0 164915.786184 569.0 1.0
718727.44000053 4295400.28999999 114.30899811 255.0 0.0 0.0 32.0 12.0 1.0 1.0 164915.786196 440.0 1.0
718727.38999939 4295400.19 114.5039978 255.0 0.0 0.0 32.0 13.0 1.0 1.0 164915.786215 343.0 1.0
718727.37000084 4295400.13 114.60399628 255.0 0.0 0.0 32.0 14.0 1.0 1.0 164915.786226 321.0 1.0
718727.34000015 4295400.08 114.70400238 255.0 0.0 0.0 32.0 14.0 1.0 1.0 164915.786238 501.0 1.0
718727.45000076 4295400.31999999 114.20200348 255.0 0.0 0.0 32.0 12.0 1.0 1.0 164915.792856 344.0 1.0
718727.43000031 4295400.28 114.29499817 255.0 0.0 0.0 32.0 12.0 1.0 1.0 164915.792868 310.0 1.0
718727.37999916 4295400.17 114.48999786 255.0 0.0 0.0 32.0 13.0 1.0 1.0 164915.792887 278.0 1.0
718727.36000061 4295400.12 114.58699799 255.0 0.0 0.0 32.0 14.0 1.0 1.0 164915.792894 303.0 1.0
718727.35000038 4295400.07 114.68699646 255.0 0.0 0.0 32.0 14.0 1.0 1.0 164915.792906 297.0 1.0
718728.37000084 4295402.31999993 110.46199799 255.0 0.0 0.0 32.0 89.0 1.0 1.0 164915.799047 126.0 1.0
718727.42000008 4295400.25999999 114.27200317 255.0 0.0 0.0 32.0 12.0 1.0 1.0 164915.799536 607.0 1.0
718727.37999916 4295400.16 114.46399689 255.0 0.0 0.0 32.0 13.0 1.0 1.0 164915.799555 478.0 1.0
718727.36000061 4295400.11 114.56099701 255.0 0.0 0.0 32.0 14.0 1.0 1.0 164915.799566 315.0 1.0
718727.34000015 4295400.06 114.66100311 255.0 0.0 0.0 32.0 14.0 1.0 1.0 164915.799578 286.0 1.0
718728.37999916 4295402.30999994 110.45600128 255.0 0.0 0.0 32.0 89.0 2.0 2.0 164915.805715 134.0 2.0
718727.42000008 4295400.25 114.25700378 255.0 0.0 0.0 32.0 12.0 1.0 1.0 164915.806208 532.0 1.0
718727.40999985 4295400.20999999 114.34999847 255.0 0.0 0.0 32.0 12.0 2.0 2.0 164915.806215 119.0 2.0
718727.38999939 4295400.16 114.44599915 255.0 0.0 0.0 32.0 13.0 2.0 2.0 164915.806227 108.0 2.0
718727.36000061 4295400.1 114.54599762 255.0 0.0 0.0 32.0 13.0 2.0 2.0 164915.806234 138.0 2.0
718727.34000015 4295400.05 114.64499664 255.0 0.0 0.0 32.0 14.0 1.0 1.0 164915.806246 599.0 1.0
718727.42000008 4295400.23999999 114.23200226 255.0 0.0 0.0 32.0 12.0 1.0 1.0 164915.812876 440.0 1.0
718727.37999916 4295400.14 114.42299652 255.0 0.0 0.0 32.0 13.0 2.0 2.0 164915.812895 207.0 2.0
718727.35000038 4295400.09 114.52100372 255.0 0.0 0.0 32.0 13.0 2.0 2.0 164915.812906 71.0 2.0
718727.42000008 4295400.23 114.21700287 255.0 0.0 0.0 32.0 11.0 2.0 2.0 164915.819548 80.0 2.0
