//X Y Z UserData ScanAngleRank NumberOfReturns ReturnNumber GpsTime Intensity Classification
100
718727.36000061 4295400.25 112.71900177 255.0 0.0 0.0 32.0 1.0 1.0 1.0 164916.03956 319.0 1.0
718727.35000038 4295400.20999999 112.80000305 255.0 0.0 0.0 32.0 2.0 1.0 1.0 164916.039572 457.0 1.0
718727.34000015 4295400.17 112.8809967 255.0 0.0 0.0 32.0 2.0 1.0 1.0 164916.039579 411.0 1.0
718727.29999924 4295400.12 112.96499634 255.0 0.0 0.0 32.0 3.0 1.0 1.0 164916.039591 493.0 1.0
718727.28000069 4295400.07 113.04799652 255.0 0.0 0.0 32.0 3.0 1.0 1.0 164916.039598 450.0 1.0
718727.86000061 4295401.42999995 110.54499817 255.0 0.0 0.0 32.0 89.0 1.0 1.0 164916.045938 117.0 1.0
718727.82999992 4295401.38999999 110.61299896 255.0 0.0 0.0 32.0 90.0 1.0 1.0 164916.04595 147.0 1.0
718727.81999969 4295401.35000002 110.68399811 255.0 0.0 0.0 32.0 90.0 1.0 1.0 164916.045961 140.0 1.0
718727.28000069 4295400.41 112.30200195 255.0 0.0 0.0 32.0 102.0 1.0 1.0 164916.046179 188.0 1.0
718727.23999977 4295400.36000001 112.38300323 255.0 0.0 0.0 32.0 103.0 1.0 1.0 164916.04619 793.0 1.0
718727.21999931 4295400.31 112.46299744 255.0 0.0 0.0 32.0 103.0 1.0 1.0 164916.046202 741.0 1.0
718727.26000023 4295400.28999999 112.54100037 255.0 0.0 0.0 32.0 104.0 1.0 1.0 164916.046209 373.0 1.0
718727.34000015 4295400.27000001 112.61699677 255.0 0.0 0.0 32.0 0.0 1.0 1.0 164916.046221 239.0 1.0
718727.36000061 4295400.23999999 112.69599915 255.0 0.0 0.0 32.0 1.0 1.0 1.0 164916.046228 457.0 1.0
718727.35000038 4295400.2 112.77600098 255.0 0.0 0.0 32.0 1.0 1.0 1.0 164916.04624 341.0 1.0
718727.29999924 4295400.11 112.94100189 255.0 0.0 0.0 32.0 3.0 1.0 1.0 164916.046259 344.0 1.0
718727.28000069 4295400.06 113.02400208 255.0 0.0 0.0 32.0 3.0 1.0 1.0 164916.04627 510.0 1.0
718727.82999992 4295401.40999997 110.51799774 255.0 0.0 0.0 32.0 89.0 1.0 1.0 164916.05261 117.0 1.0
718727.82999992 4295401.38 110.58999634 255.0 0.0 0.0 32.0 90.0 1.0 1.0 164916.052622 115.0 1.0
718727.80999947 4295401.34000003 110.66000366 255.0 0.0 0.0 32.0 90.0 1.0 1.0 164916.052629 162.0 1.0
718727.63999939 4295401.25999999 110.70400238 255.0 0.0 0.0 32.0 91.0 1.0 1.0 164916.052641 73.0 1.0
718727.27000046 4295400.40000001 112.27600098 255.0 0.0 0.0 32.0 102.0 1.0 1.0 164916.052851 352.0 1.0
718727.23999977 4295400.34999999 112.35600281 255.0 0.0 0.0 32.0 103.0 1.0 1.0 164916.052858 746.0 1.0
718727.22999954 4295400.31 112.43599701 255.0 0.0 0.0 32.0 103.0 1.0 1.0 164916.05287 775.0 1.0
718727.27000046 4295400.28 112.51399994 255.0 0.0 0.0 32.0 104.0 1.0 1.0 164916.052881 312.0 1.0
718727.35000038 4295400.27000001 112.58999634 255.0 0.0 0.0 32.0 0.0 1.0 1.0 164916.052889 240.0 1.0
718727.36000061 4295400.23 112.66899872 255.0 0.0 0.0 32.0 1.0 1.0 1.0 164916.0529 393.0 1.0
718727.32999992 4295400.19 112.75 255.0 0.0 0.0 32.0 1.0 1.0 1.0 164916.052912 483.0 1.0
718727.30999947 4295400.14 112.83200073 255.0 0.0 0.0 32.0 2.0 1.0 1.0 164916.052919 380.0 1.0
718727.29000092 4295400.09 112.91400146 255.0 0.0 0.0 32.0 2.0 1.0 1.0 164916.052931 499.0 1.0
718727.27000046 4295400.05 112.99700165 255.0 0.0 0.0 32.0 3.0 1.0 1.0 164916.052938 657.0 1.0
718727.82999992 4295401.39999998 110.49900055 255.0 0.0 0.0 32.0 89.0 1.0 1.0 164916.059278 197.0 1.0
718727.81999969 4295401.36000001 110.56999969 255.0 0.0 0.0 32.0 89.0 1.0 1.0 164916.05929 103.0 1.0
718727.81999969 4295401.33000004 110.64299774 255.0 0.0 0.0 32.0 90.0 1.0 1.0 164916.059301 112.0 1.0
718727.70999908 4295401.26999998 110.6969986 255.0 0.0 0.0 32.0 91.0 1.0 1.0 164916.059309 109.0 1.0
718727.23999977 4295400.41 112.17500305 255.0 0.0 0.0 32.0 101.0 1.0 1.0 164916.059511 168.0 1.0
718727.25 4295400.38 112.2539978 255.0 0.0 0.0 32.0 102.0 1.0 1.0 164916.059519 685.0 1.0
718727.23999977 4295400.34 112.33399963 255.0 0.0 0.0 32.0 102.0 1.0 1.0 164916.05953 795.0 1.0
718727.22999954 4295400.30000001 112.41300201 255.0 0.0 0.0 32.0 103.0 1.0 1.0 164916.059542 654.0 1.0
718727.29000092 4295400.28 112.49099731 255.0 0.0 0.0 32.0 104.0 1.0 1.0 164916.059549 441.0 1.0
718727.32999992 4295400.25 112.56800079 255.0 0.0 0.0 32.0 0.0 1.0 1.0 164916.059561 659.0 1.0
718727.35000038 4295400.22 112.64600372 255.0 0.0 0.0 32.0 1.0 1.0 1.0 164916.059568 443.0 1.0
718727.34000015 4295400.18000001 112.72599792 255.0 0.0 0.0 32.0 1.0 1.0 1.0 164916.05958 142.0 1.0
718727.29999924 4295400.13 112.80899811 255.0 0.0 0.0 32.0 2.0 1.0 1.0 164916.059591 319.0 1.0
718727.29000092 4295400.08 112.88999939 255.0 0.0 0.0 32.0 2.0 1.0 1.0 164916.059599 355.0 1.0
718727.27000046 4295400.04 112.97399902 255.0 0.0 0.0 32.0 3.0 1.0 1.0 164916.05961 576.0 1.0
718727.81999969 4295401.35000002 110.54399872 255.0 0.0 0.0 32.0 89.0 1.0 1.0 164916.065962 115.0 1.0
718727.80999947 4295401.30999994 110.61399841 255.0 0.0 0.0 32.0 90.0 1.0 1.0 164916.065969 135.0 1.0
718727.79999924 4295401.27999997 110.68599701 255.0 0.0 0.0 32.0 90.0 1.0 1.0 164916.065981 138.0 1.0
718727.23999977 4295400.41 112.14499664 255.0 0.0 0.0 32.0 101.0 1.0 1.0 164916.066179 208.0 1.0
718727.26000023 4295400.37 112.22399902 255.0 0.0 0.0 32.0 102.0 1.0 1.0 164916.066191 440.0 1.0
718727.22999954 4295400.33000001 112.30400085 255.0 0.0 0.0 32.0 102.0 1.0 1.0 164916.066198 698.0 1.0
718727.25 4295400.28999999 112.38200378 255.0 0.0 0.0 32.0 103.0 1.0 1.0 164916.06621 477.0 1.0
718727.30999947 4295400.28 112.45899963 255.0 0.0 0.0 32.0 103.0 1.0 1.0 164916.066221 372.0 1.0
718727.36000061 4295400.25 112.53700256 255.0 0.0 0.0 32.0 104.0 1.0 1.0 164916.066229 392.0 1.0
718727.36000061 4295400.22 112.61499786 255.0 0.0 0.0 32.0 0.0 1.0 1.0 164916.06624 385.0 1.0
718727.34000015 4295400.17 112.69599915 255.0 0.0 0.0 32.0 1.0 1.0 1.0 164916.066252 377.0 1.0
718727.29000092 4295400.12 112.77899933 255.0 0.0 0.0 32.0 1.0 1.0 1.0 164916.066259 813.0 1.0
718727.29000092 4295400.07 112.86000061 255.0 0.0 0.0 32.0 2.0 1.0 1.0 164916.066271 465.0 1.0
718727.27000046 4295400.03 112.94200134 255.0 0.0 0.0 32.0 3.0 1.0 1.0 164916.066278 237.0 1.0
718727.81999969 4295401.34000003 110.52500153 255.0 0.0 0.0 32.0 89.0 1.0 1.0 164916.07263 119.0 1.0
718727.79000092 4295401.29999995 110.59300232 255.0 0.0 0.0 32.0 90.0 1.0 1.0 164916.072641 155.0 1.0
718727.25 4295400.40000001 112.12400055 255.0 0.0 0.0 32.0 101.0 1.0 1.0 164916.072851 606.0 1.0
718727.25 4295400.36000001 112.20300293 255.0 0.0 0.0 32.0 102.0 1.0 1.0 164916.072859 634.0 1.0
718727.23999977 4295400.31999999 112.28199768 255.0 0.0 0.0 32.0 102.0 1.0 1.0 164916.07287 402.0 1.0
718727.26000023 4295400.28999999 112.36100006 255.0 0.0 0.0 32.0 103.0 1.0 1.0 164916.072882 556.0 1.0
718727.31999969 4295400.27000001 112.43800354 255.0 0.0 0.0 32.0 103.0 1.0 1.0 164916.072889 240.0 1.0
718727.36000061 4295400.23999999 112.51499939 255.0 0.0 0.0 32.0 104.0 1.0 1.0 164916.072901 267.0 1.0
718727.34000015 4295400.2 112.59500122 255.0 0.0 0.0 32.0 0.0 1.0 1.0 164916.072908 499.0 1.0
718727.32999992 4295400.15000001 112.67500305 255.0 0.0 0.0 32.0 1.0 1.0 1.0 164916.07292 181.0 1.0
718727.29000092 4295400.11 112.75700378 255.0 0.0 0.0 32.0 1.0 1.0 1.0 164916.072931 465.0 1.0
718727.27000046 4295400.06 112.83899689 255.0 0.0 0.0 32.0 2.0 1.0 1.0 164916.072939 682.0 1.0
718727.27000046 4295400.02 112.91899872 255.0 0.0 0.0 32.0 2.0 1.0 1.0 164916.07295 281.0 1.0
718727.84000015 4295401.33000004 110.50299835 255.0 0.0 0.0 32.0 89.0 1.0 1.0 164916.079302 279.0 1.0
718727.79999924 4295401.28999996 110.56700134 255.0 0.0 0.0 32.0 90.0 1.0 1.0 164916.079309 146.0 1.0
718727.23999977 4295400.41999999 112.01599884 255.0 0.0 0.0 32.0 100.0 1.0 1.0 164916.079512 188.0 1.0
718727.27000046 4295400.40000001 112.09500122 255.0 0.0 0.0 32.0 101.0 1.0 1.0 164916.079519 407.0 1.0
718727.23999977 4295400.34999999 112.17299652 255.0 0.0 0.0 32.0 101.0 1.0 1.0 164916.079531 671.0 1.0
718727.22999954 4295400.31 112.2519989 255.0 0.0 0.0 32.0 102.0 1.0 1.0 164916.079538 491.0 1.0
718727.28000069 4295400.28 112.33000183 255.0 0.0 0.0 32.0 102.0 1.0 1.0 164916.07955 375.0 1.0
718727.32999992 4295400.25999999 112.40699768 255.0 0.0 0.0 32.0 103.0 1.0 1.0 164916.079561 418.0 1.0
718727.35000038 4295400.23 112.48500061 255.0 0.0 0.0 32.0 104.0 1.0 1.0 164916.079569 391.0 1.0
718727.34000015 4295400.19 112.56400299 255.0 0.0 0.0 32.0 0.0 1.0 1.0 164916.07958 578.0 1.0
718727.29999924 4295400.14 112.64600372 255.0 0.0 0.0 32.0 1.0 1.0 1.0 164916.079592 211.0 1.0
718727.29000092 4295400.1 112.72599792 255.0 0.0 0.0 32.0 1.0 1.0 1.0 164916.079599 390.0 1.0
718727.27000046 4295400.05 112.80799866 255.0 0.0 0.0 32.0 2.0 1.0 1.0 164916.079611 369.0 1.0
718727.40999985 4295400.79000002 111.30899811 255.0 0.0 0.0 32.0 95.0 1.0 1.0 164916.086092 323.0 1.0
718727.26000023 4295400.38 112.07099915 255.0 0.0 0.0 32.0 101.0 1.0 1.0 164916.086191 471.0 1.0
718727.22999954 4295400.33000001 112.14900208 255.0 0.0 0.0 32.0 101.0 1.0 1.0 164916.086199 672.0 1.0
718727.22999954 4295400.30000001 112.22799683 255.0 0.0 0.0 32.0 102.0 1.0 1.0 164916.08621 507.0 1.0
718727.29999924 4295400.28 112.30599976 255.0 0.0 0.0 32.0 102.0 1.0 1.0 164916.086222 278.0 1.0
718727.35000038 4295400.25999999 112.38400269 255.0 0.0 0.0 32.0 103.0 1.0 1.0 164916.086229 289.0 1.0
718727.35000038 4295400.22 112.46199799 255.0 0.0 0.0 32.0 103.0 1.0 1.0 164916.086241 362.0 1.0
718727.32999992 4295400.18000001 112.54100037 255.0 0.0 0.0 32.0 104.0 1.0 1.0 164916.086248 315.0 1.0
718727.29999924 4295400.13 112.62200165 255.0 0.0 0.0 32.0 0.0 1.0 1.0 164916.08626 639.0 1.0
718727.28000069 4295400.08 112.70300293 255.0 0.0 0.0 32.0 1.0 1.0 1.0 164916.086271 467.0 1.0
718727.27000046 4295400.04 112.78299713 255.0 0.0 0.0 32.0 2.0 1.0 1.0 164916.086279 804.0 1.0
718727.25 4295400.41 111.96399689 255.0 0.0 0.0 32.0 100.0 1.0 1.0 164916.092852 172.0 1.0
718727.23999977 4295400.37 112.04199982 255.0 0.0 0.0 32.0 101.0 1.0 1.0 164916.092859 671.0 1.0
718727.23999977 4295400.33000001 112.12000275 255.0 0.0 0.0 32.0 101.0 1.0 1.0 164916.092871 428.0 1.0
718727.25 4295400.30000001 112.19799805 255.0 0.0 0.0 32.0 102.0 1.0 1.0 164916.092878 364.0 1.0
718727.30999947 4295400.28 112.27600098 255.0 0.0 0.0 32.0 102.0 1.0 1.0 164916.09289 311.0 1.0
718727.35000038 4295400.25 112.35299683 255.0 0.0 0.0 32.0 103.0 1.0 1.0 164916.092901 603.0 1.0
718727.34000015 4295400.20999999 112.43199921 255.0 0.0 0.0 32.0 103.0 1.0 1.0 164916.092909 499.0 1.0
718727.34000015 4295400.17 112.51000214 255.0 0.0 0.0 32.0 104.0 1.0 1.0 164916.09292 383.0 1.0
718727.29999924 4295400.12 112.59100342 255.0 0.0 0.0 32.0 0.0 1.0 1.0 164916.092932 446.0 1.0
718727.27000046 4295400.07 112.67299652 255.0 0.0 0.0 32.0 1.0 1.0 1.0 164916.092939 491.0 1.0
718727.26000023 4295400.03 112.75299835 255.0 0.0 0.0 32.0 1.0 1.0 1.0 164916.092951 256.0 1.0
718727.25 4295400.40000001 111.94200134 255.0 0.0 0.0 32.0 100.0 1.0 1.0 164916.09952 652.0 1.0
718727.25 4295400.36000001 112.01899719 255.0 0.0 0.0 32.0 100.0 1.0 1.0 164916.099531 599.0 1.0
718727.22999954 4295400.31 112.09799957 255.0 0.0 0.0 32.0 101.0 1.0 1.0 164916.099539 485.0 1.0
718727.25 4295400.28 112.1760025 255.0 0.0 0.0 32.0 101.0 1.0 1.0 164916.09955 361.0 1.0
718727.30999947 4295400.25999999 112.2539978 255.0 0.0 0.0 32.0 102.0 1.0 1.0 164916.099562 430.0 1.0
718727.36000061 4295400.23999999 112.33100128 255.0 0.0 0.0 32.0 103.0 1.0 1.0 164916.099569 491.0 1.0
718727.32999992 4295400.2 112.40899658 255.0 0.0 0.0 32.0 103.0 1.0 1.0 164916.099581 476.0 1.0
718727.29000092 4295400.11 112.56900024 255.0 0.0 0.0 32.0 0.0 1.0 1.0 164916.0996 526.0 1.0
718727.27000046 4295400.06 112.65000153 255.0 0.0 0.0 32.0 1.0 1.0 1.0 164916.099611 572.0 1.0
718727.27000046 4295400.02 112.72899628 255.0 0.0 0.0 32.0 1.0 1.0 1.0 164916.099619 264.0 1.0
718727.39999962 4295400.75999999 111.22899628 255.0 0.0 0.0 32.0 95.0 1.0 1.0 164916.1061 436.0 1.0
718727.37999916 4295400.72000003 111.3030014 255.0 0.0 0.0 32.0 95.0 1.0 1.0 164916.106111 428.0 1.0
718727.23999977 4295400.38999999 111.91000366 255.0 0.0 0.0 32.0 100.0 1.0 1.0 164916.106192 1142.0 1.0
718727.23999977 4295400.34999999 111.98799896 255.0 0.0 0.0 32.0 100.0 1.0 1.0 164916.106199 662.0 1.0
718727.23999977 4295400.31 112.06600189 255.0 0.0 0.0 32.0 101.0 1.0 1.0 164916.106211 435.0 1.0
718727.28000069 4295400.28 112.14399719 255.0 0.0 0.0 32.0 101.0 1.0 1.0 164916.106218 313.0 1.0
718727.31999969 4295400.25999999 112.22200012 255.0 0.0 0.0 32.0 102.0 1.0 1.0 164916.10623 273.0 1.0
718727.35000038 4295400.23 112.30000305 255.0 0.0 0.0 32.0 102.0 1.0 1.0 164916.106241 462.0 1.0
718727.34000015 4295400.19 112.37799835 255.0 0.0 0.0 32.0 103.0 1.0 1.0 164916.106249 503.0 1.0
718727.31999969 4295400.15000001 112.45700073 255.0 0.0 0.0 32.0 103.0 1.0 1.0 164916.10626 685.0 1.0
718727.30999947 4295400.11 112.53600311 255.0 0.0 0.0 32.0 104.0 1.0 1.0 164916.106272 115.0 1.0
718727.28000069 4295400.06 112.61699677 255.0 0.0 0.0 32.0 1.0 1.0 1.0 164916.106279 476.0 1.0
718727.27000046 4295400.02 112.69599915 255.0 0.0 0.0 32.0 1.0 1.0 1.0 164916.106291 397.0 1.0
718727.72999954 4295401.11000001 110.65799713 255.0 0.0 0.0 32.0 90.0 1.0 1.0 164916.112692 118.0 1.0
718727.54000092 4295401.03999996 110.69799805 255.0 0.0 0.0 32.0 91.0 1.0 1.0 164916.112699 67.0 1.0
718727.23999977 4295400.38 111.88500214 255.0 0.0 0.0 32.0 100.0 1.0 1.0 164916.11286 685.0 1.0
718727.23999977 4295400.34 111.96299744 255.0 0.0 0.0 32.0 100.0 1.0 1.0 164916.112871 677.0 1.0
718727.23999977 4295400.30000001 112.04100037 255.0 0.0 0.0 32.0 101.0 1.0 1.0 164916.112879 456.0 1.0
718727.29000092 4295400.28 112.12000275 255.0 0.0 0.0 32.0 101.0 1.0 1.0 164916.11289 365.0 1.0
718727.32999992 4295400.25 112.19799805 255.0 0.0 0.0 32.0 102.0 1.0 1.0 164916.112902 392.0 1.0
718727.35000038 4295400.22 112.27500153 255.0 0.0 0.0 32.0 102.0 1.0 1.0 164916.112909 268.0 1.0
718727.31999969 4295400.17 112.35399628 255.0 0.0 0.0 32.0 103.0 1.0 1.0 164916.112921 267.0 1.0
718727.30999947 4295400.13 112.43199921 255.0 0.0 0.0 32.0 103.0 1.0 1.0 164916.112928 413.0 1.0
718727.30999947 4295400.1 112.51100159 255.0 0.0 0.0 32.0 104.0 1.0 1.0 164916.11294 192.0 1.0
718727.26000023 4295400.04 112.59200287 255.0 0.0 0.0 32.0 0.0 1.0 1.0 164916.112951 573.0 1.0
718727.75 4295401.13999999 110.55999756 255.0 0.0 0.0 32.0 90.0 1.0 1.0 164916.119348 163.0 1.0
718727.72999954 4295401.10000002 110.62799835 255.0 0.0 0.0 32.0 90.0 1.0 1.0 164916.11936 116.0 1.0
718727.67000008 4295401.04999995 110.69200134 255.0 0.0 0.0 32.0 91.0 1.0 1.0 164916.119371 82.0 1.0
718727.37999916 4295400.69999999 111.24900055 255.0 0.0 0.0 32.0 95.0 1.0 1.0 164916.119451 467.0 1.0
718727.37000084 4295400.66000003 111.3239975 255.0 0.0 0.0 32.0 96.0 1.0 1.0 164916.119459 448.0 1.0
718727.23999977 4295400.40000001 111.77600098 255.0 0.0 0.0 32.0 99.0 1.0 1.0 164916.11952 230.0 1.0
718727.25 4295400.37 111.85399628 255.0 0.0 0.0 32.0 99.0 1.0 1.0 164916.119532 510.0 1.0
718727.22999954 4295400.33000001 111.93099976 255.0 0.0 0.0 32.0 100.0 1.0 1.0 164916.119539 458.0 1.0
718727.23999977 4295400.28999999 112.01000214 255.0 0.0 0.0 32.0 100.0 1.0 1.0 164916.119551 418.0 1.0
718727.29000092 4295400.27000001 112.08799744 255.0 0.0 0.0 32.0 101.0 1.0 1.0 164916.119558 418.0 1.0
718727.36000061 4295400.25 112.16600037 255.0 0.0 0.0 32.0 102.0 1.0 1.0 164916.11957 138.0 1.0
718727.34000015 4295400.20999999 112.24299622 255.0 0.0 0.0 32.0 102.0 1.0 1.0 164916.119581 596.0 1.0
718727.32999992 4295400.17 112.32099915 255.0 0.0 0.0 32.0 103.0 1.0 1.0 164916.119589 190.0 1.0
718727.31999969 4295400.13 112.40000153 255.0 0.0 0.0 32.0 103.0 1.0 1.0 164916.1196 71.0 1.0
718727.29999924 4295400.09 112.47799683 255.0 0.0 0.0 32.0 104.0 1.0 1.0 164916.119612 412.0 1.0
718727.27000046 4295400.04 112.55899811 255.0 0.0 0.0 32.0 0.0 1.0 1.0 164916.119619 506.0 1.0
718727.73999977 4295401.13 110.53700256 255.0 0.0 0.0 32.0 90.0 1.0 1.0 164916.12602 104.0 1.0
718727.71999931 4295401.09000003 110.60500336 255.0 0.0 0.0 32.0 90.0 1.0 1.0 164916.126032 112.0 1.0
718727.70999908 4295401.04999995 110.67700195 255.0 0.0 0.0 32.0 91.0 1.0 1.0 164916.126039 147.0 1.0
718727.37000084 4295400.68000001 111.22499847 255.0 0.0 0.0 32.0 95.0 1.0 1.0 164916.12612 390.0 1.0
718727.36000061 4295400.63999999 111.30000305 255.0 0.0 0.0 32.0 95.0 1.0 1.0 164916.126131 568.0 1.0
718727.25 4295400.40000001 111.75299835 255.0 0.0 0.0 32.0 99.0 1.0 1.0 164916.126188 950.0 1.0
718727.25 4295400.36000001 111.83000183 255.0 0.0 0.0 32.0 99.0 1.0 1.0 164916.1262 348.0 1.0
718727.21999931 4295400.31 111.90699768 255.0 0.0 0.0 32.0 100.0 1.0 1.0 164916.126211 800.0 1.0
718727.25 4295400.28 111.98500061 255.0 0.0 0.0 32.0 100.0 1.0 1.0 164916.126219 464.0 1.0
718727.30999947 4295400.25999999 112.06400299 255.0 0.0 0.0 32.0 101.0 1.0 1.0 164916.12623 518.0 1.0
718727.35000038 4295400.23999999 112.14199829 255.0 0.0 0.0 32.0 101.0 1.0 1.0 164916.126242 338.0 1.0
718727.32999992 4295400.2 112.21900177 255.0 0.0 0.0 32.0 102.0 1.0 1.0 164916.126249 361.0 1.0
718727.32999992 4295400.16 112.29699707 255.0 0.0 0.0 32.0 102.0 1.0 1.0 164916.126261 146.0 1.0
718727.29000092 4295400.11 112.37599945 255.0 0.0 0.0 32.0 103.0 1.0 1.0 164916.126268 422.0 1.0
718727.29000092 4295400.07 112.45400238 255.0 0.0 0.0 32.0 104.0 1.0 1.0 164916.12628 419.0 1.0
718727.26000023 4295400.02 112.53399658 255.0 0.0 0.0 32.0 0.0 1.0 1.0 164916.126291 218.0 1.0
718727.73999977 4295401.12 110.50800323 255.0 0.0 0.0 32.0 89.0 1.0 1.0 164916.132688 109.0 1.0
718727.71999931 4295401.08000004 110.57800293 255.0 0.0 0.0 32.0 90.0 1.0 1.0 164916.1327 119.0 1.0
718727.70999908 4295401.03999996 110.64800262 255.0 0.0 0.0 32.0 90.0 1.0 1.0 164916.132711 142.0 1.0
718727.59000015 4295400.98000002 110.69999695 255.0 0.0 0.0 32.0 91.0 1.0 1.0 164916.132719 64.0 1.0
718727.34000015 4295400.63 111.26799774 255.0 0.0 0.0 32.0 95.0 1.0 1.0 164916.132799 675.0 1.0
718727.32999992 4295400.58999997 111.34400177 255.0 0.0 0.0 32.0 96.0 1.0 1.0 164916.13281 498.0 1.0
718727.25 4295400.38999999 111.72200012 255.0 0.0 0.0 32.0 98.0 1.0 1.0 164916.13286 461.0 1.0
718727.25 4295400.34999999 111.7990036 255.0 0.0 0.0 32.0 99.0 1.0 1.0 164916.132872 419.0 1.0
718727.21999931 4295400.30000001 111.87599945 255.0 0.0 0.0 32.0 100.0 1.0 1.0 164916.132879 719.0 1.0
718727.27000046 4295400.28 111.95500183 255.0 0.0 0.0 32.0 100.0 1.0 1.0 164916.132891 319.0 1.0
718727.30999947 4295400.25999999 112.03299713 255.0 0.0 0.0 32.0 101.0 1.0 1.0 164916.132898 512.0 1.0
718727.36000061 4295400.23 112.11000061 255.0 0.0 0.0 32.0 101.0 1.0 1.0 164916.13291 413.0 1.0
718727.31999969 4295400.19 112.18699646 255.0 0.0 0.0 32.0 102.0 1.0 1.0 164916.132921 607.0 1.0
718727.30999947 4295400.14 112.26499939 255.0 0.0 0.0 32.0 102.0 1.0 1.0 164916.132929 165.0 1.0
718727.29000092 4295400.1 112.34400177 255.0 0.0 0.0 32.0 103.0 1.0 1.0 164916.13294 391.0 1.0
718727.28000069 4295400.06 112.42199707 255.0 0.0 0.0 32.0 103.0 1.0 1.0 164916.132952 82.0 1.0
718727.71999931 4295401.05999994 110.55400085 255.0 0.0 0.0 32.0 90.0 1.0 1.0 164916.139372 145.0 1.0
718727.70000076 4295401.02999997 110.62599945 255.0 0.0 0.0 32.0 90.0 1.0 1.0 164916.139379 125.0 1.0
718727.68000031 4295400.99000001 110.69599915 255.0 0.0 0.0 32.0 91.0 1.0 1.0 164916.139391 77.0 1.0
718727.32999992 4295400.57999998 111.32099915 255.0 0.0 0.0 32.0 96.0 1.0 1.0 164916.139479 637.0 1.0
718727.23999977 4295400.41 111.62000275 255.0 0.0 0.0 32.0 98.0 1.0 1.0 164916.139521 118.0 1.0
718727.25 4295400.37 111.69799805 255.0 0.0 0.0 32.0 98.0 1.0 1.0 164916.139528 462.0 1.0
718727.22999954 4295400.33000001 111.77400208 255.0 0.0 0.0 32.0 99.0 1.0 1.0 164916.13954 654.0 1.0
718727.22999954 4295400.30000001 111.85199738 255.0 0.0 0.0 32.0 99.0 1.0 1.0 164916.139551 458.0 1.0
718727.28000069 4295400.27000001 111.93099976 255.0 0.0 0.0 32.0 100.0 1.0 1.0 164916.139559 395.0 1.0
718727.34000015 4295400.25 112.00900269 255.0 0.0 0.0 32.0 101.0 1.0 1.0 164916.13957 363.0 1.0
718727.34000015 4295400.22 112.08699799 255.0 0.0 0.0 32.0 101.0 1.0 1.0 164916.139582 484.0 1.0
718727.31999969 4295400.17 112.16400146 255.0 0.0 0.0 32.0 102.0 1.0 1.0 164916.139589 418.0 1.0
718727.30999947 4295400.13 112.24099731 255.0 0.0 0.0 32.0 102.0 1.0 1.0 164916.139601 380.0 1.0
718727.28000069 4295400.09 112.31999969 255.0 0.0 0.0 32.0 103.0 1.0 1.0 164916.139608 478.0 1.0
718727.27000046 4295400.05 112.39800262 255.0 0.0 0.0 32.0 103.0 1.0 1.0 164916.13962 143.0 1.0
718727.25 4295400.0 112.47699738 255.0 0.0 0.0 32.0 104.0 1.0 1.0 164916.139631 775.0 1.0
718727.70999908 4295401.04999995 110.52600098 255.0 0.0 0.0 32.0 90.0 1.0 1.0 164916.14604 144.0 1.0
718727.70999908 4295401.01999998 110.59899902 255.0 0.0 0.0 32.0 90.0 1.0 1.0 164916.146051 81.0 1.0
718727.70000076 4295400.98000002 110.66999817 255.0 0.0 0.0 32.0 91.0 1.0 1.0 164916.146059 76.0 1.0
718727.48999977 4295400.89999998 110.70899963 255.0 0.0 0.0 32.0 91.0 1.0 1.0 164916.14607 64.0 1.0
718727.35000038 4295400.61000001 111.21700287 255.0 0.0 0.0 32.0 95.0 1.0 1.0 164916.146139 294.0 1.0
718727.32999992 4295400.56999999 111.29100037 255.0 0.0 0.0 32.0 95.0 1.0 1.0 164916.14615 584.0 1.0
718727.25 4295400.40000001 111.59100342 255.0 0.0 0.0 32.0 98.0 1.0 1.0 164916.146189 213.0 1.0
718727.23999977 4295400.37 111.66799927 255.0 0.0 0.0 32.0 98.0 1.0 1.0 164916.1462 544.0 1.0
718727.21999931 4295400.31999999 111.7440033 255.0 0.0 0.0 32.0 99.0 1.0 1.0 164916.146212 940.0 1.0
718727.23999977 4295400.28999999 111.8219986 255.0 0.0 0.0 32.0 99.0 1.0 1.0 164916.146219 442.0 1.0
718727.29999924 4295400.27000001 111.90100098 255.0 0.0 0.0 32.0 100.0 1.0 1.0 164916.146231 365.0 1.0
718727.34000015 4295400.25 111.97899628 255.0 0.0 0.0 32.0 100.0 1.0 1.0 164916.146238 484.0 1.0
718727.34000015 4295400.20999999 112.05599976 255.0 0.0 0.0 32.0 101.0 1.0 1.0 164916.14625 357.0 1.0
718727.34000015 4295400.17 112.13300323 255.0 0.0 0.0 32.0 101.0 1.0 1.0 164916.146261 283.0 1.0
718727.29999924 4295400.12 112.21099854 255.0 0.0 0.0 32.0 102.0 1.0 1.0 164916.146269 563.0 1.0
718727.28000069 4295400.08 112.28900146 255.0 0.0 0.0 32.0 102.0 1.0 1.0 164916.14628 116.0 1.0
718727.27000046 4295400.04 112.36799622 255.0 0.0 0.0 32.0 103.0 1.0 1.0 164916.146292 88.0 1.0
718727.70999908 4295401.03999996 110.5059967 255.0 0.0 0.0 32.0 89.0 1.0 1.0 164916.152712 153.0 1.0
718727.69000053 4295401.0 110.5759964 255.0 0.0 0.0 32.0 90.0 1.0 1.0 164916.152719 87.0 1.0
718727.69000053 4295400.95999998 110.64800262 255.0 0.0 0.0 32.0 90.0 1.0 1.0 164916.152731 90.0 1.0
718727.54999924 4295400.89999998 110.6969986 255.0 0.0 0.0 32.0 91.0 1.0 1.0 164916.152738 72.0 1.0
718727.31999969 4295400.58999997 111.19200134 255.0 0.0 0.0 32.0 95.0 1.0 1.0 164916.152811 177.0 1.0
718727.31999969 4295400.56 111.26699829 255.0 0.0 0.0 32.0 95.0 1.0 1.0 164916.152819 519.0 1.0
718727.29999924 4295400.51999998 111.34300232 255.0 0.0 0.0 32.0 96.0 1.0 1.0 164916.15283 621.0 1.0
718727.26000023 4295400.40000001 111.56999969 255.0 0.0 0.0 32.0 98.0 1.0 1.0 164916.152861 350.0 1.0
718727.22999954 4295400.34999999 111.64499664 255.0 0.0 0.0 32.0 98.0 1.0 1.0 164916.152868 667.0 1.0
718727.23999977 4295400.31 111.72200012 255.0 0.0 0.0 32.0 99.0 1.0 1.0 164916.15288 382.0 1.0
718727.25 4295400.28 111.80000305 255.0 0.0 0.0 32.0 99.0 1.0 1.0 164916.152891 280.0 1.0
718727.30999947 4295400.25999999 111.8789978 255.0 0.0 0.0 32.0 100.0 1.0 1.0 164916.152899 473.0 1.0
718727.35000038 4295400.23999999 111.95700073 255.0 0.0 0.0 32.0 100.0 1.0 1.0 164916.15291 368.0 1.0
718727.31999969 4295400.19 112.03399658 255.0 0.0 0.0 32.0 101.0 1.0 1.0 164916.152922 386.0 1.0
718727.32999992 4295400.16 112.11100006 255.0 0.0 0.0 32.0 101.0 1.0 1.0 164916.152929 151.0 1.0
718727.29000092 4295400.11 112.18800354 255.0 0.0 0.0 32.0 102.0 1.0 1.0 164916.152941 477.0 1.0
718727.28000069 4295400.07 112.26599884 255.0 0.0 0.0 32.0 102.0 1.0 1.0 164916.152948 98.0 1.0
718727.26000023 4295400.02 112.34400177 255.0 0.0 0.0 32.0 103.0 1.0 1.0 164916.15296 132.0 1.0
718727.69000053 4295400.99000001 110.54599762 255.0 0.0 0.0 32.0 90.0 1.0 1.0 164916.159391 75.0 1.0
718727.68000031 4295400.94999999 110.61799622 255.0 0.0 0.0 32.0 90.0 1.0 1.0 164916.159399 95.0 1.0
718727.64999962 4295400.91000003 110.68699646 255.0 0.0 0.0 32.0 91.0 1.0 1.0 164916.15941 100.0 1.0
718727.31999969 4295400.55000001 111.23799896 255.0 0.0 0.0 32.0 95.0 1.0 1.0 164916.15949 520.0 1.0
718727.29999924 4295400.50999999 111.31199646 255.0 0.0 0.0 32.0 96.0 1.0 1.0 164916.159498 776.0 1.0
718727.25 4295400.38 111.53700256 255.0 0.0 0.0 32.0 97.0 1.0 1.0 164916.159529 660.0 1.0
718727.22999954 4295400.34 111.61299896 255.0 0.0 0.0 32.0 98.0 1.0 1.0 164916.15954 622.0 1.0
718727.21999931 4295400.30000001 111.69000244 255.0 0.0 0.0 32.0 98.0 1.0 1.0 164916.159552 721.0 1.0
718727.27000046 4295400.28 111.76999664 255.0 0.0 0.0 32.0 99.0 1.0 1.0 164916.159559 363.0 1.0
718727.31999969 4295400.25999999 111.84799957 255.0 0.0 0.0 32.0 99.0 1.0 1.0 164916.159571 654.0 1.0
718727.35000038 4295400.23 111.9260025 255.0 0.0 0.0 32.0 100.0 1.0 1.0 164916.159578 285.0 1.0
718727.32999992 4295400.19 112.0019989 255.0 0.0 0.0 32.0 101.0 1.0 1.0 164916.15959 539.0 1.0
718727.30999947 4295400.14 112.07900238 255.0 0.0 0.0 32.0 101.0 1.0 1.0 164916.159601 152.0 1.0
718727.29999924 4295400.1 112.15599823 255.0 0.0 0.0 32.0 102.0 1.0 1.0 164916.159609 325.0 1.0
718727.27000046 4295400.06 112.23400116 255.0 0.0 0.0 32.0 102.0 1.0 1.0 164916.15962 433.0 1.0
718727.27000046 4295400.02 112.31199646 255.0 0.0 0.0 32.0 103.0 1.0 1.0 164916.159632 96.0 1.0
718727.68000031 4295400.98000002 110.52400208 255.0 0.0 0.0 32.0 90.0 1.0 1.0 164916.166059 138.0 1.0
718727.67000008 4295400.94 110.59300232 255.0 0.0 0.0 32.0 90.0 1.0 1.0 164916.166071 189.0 1.0
718727.65999985 4295400.89999998 110.66600037 255.0 0.0 0.0 32.0 91.0 1.0 1.0 164916.166078 199.0 1.0
718727.45000076 4295400.81999999 110.70300293 255.0 0.0 0.0 32.0 91.0 1.0 1.0 164916.16609 72.0 1.0
718727.29999924 4295400.52999997 111.21299744 255.0 0.0 0.0 32.0 95.0 1.0 1.0 164916.166159 747.0 1.0
718727.28000069 4295400.49000001 111.28700256 255.0 0.0 0.0 32.0 96.0 1.0 1.0 164916.16617 764.0 1.0
718727.23999977 4295400.41 111.43599701 255.0 0.0 0.0 32.0 97.0 1.0 1.0 164916.166189 126.0 1.0
718727.23999977 4295400.37 111.51200104 255.0 0.0 0.0 32.0 97.0 1.0 1.0 164916.166201 592.0 1.0
718727.23999977 4295400.33000001 111.58899689 255.0 0.0 0.0 32.0 98.0 1.0 1.0 164916.166208 446.0 1.0
718727.22999954 4295400.28999999 111.66600037 255.0 0.0 0.0 32.0 98.0 1.0 1.0 164916.16622 395.0 1.0
718727.29000092 4295400.27000001 111.7460022 255.0 0.0 0.0 32.0 99.0 1.0 1.0 164916.166231 299.0 1.0
718727.32999992 4295400.25 111.82499695 255.0 0.0 0.0 32.0 99.0 1.0 1.0 164916.166239 851.0 1.0
718727.34000015 4295400.22 111.90100098 255.0 0.0 0.0 32.0 100.0 1.0 1.0 164916.16625 609.0 1.0
718727.31999969 4295400.17 111.97699738 255.0 0.0 0.0 32.0 100.0 1.0 1.0 164916.166262 366.0 1.0
718727.29999924 4295400.13 112.05400085 255.0 0.0 0.0 32.0 101.0 1.0 1.0 164916.166269 582.0 1.0
718727.29000092 4295400.09 112.1309967 255.0 0.0 0.0 32.0 102.0 1.0 1.0 164916.166281 155.0 1.0
718727.28000069 4295400.05 112.20899963 255.0 0.0 0.0 32.0 102.0 1.0 1.0 164916.166288 347.0 1.0
718727.68000031 4295400.97000003 110.4940033 255.0 0.0 0.0 32.0 89.0 1.0 1.0 164916.172731 155.0 1.0
718727.65999985 4295400.93000001 110.56400299 255.0 0.0 0.0 32.0 90.0 1.0 1.0 164916.172739 159.0 1.0
718727.65999985 4295400.88999999 110.63700104 255.0 0.0 0.0 32.0 91.0 1.0 1.0 164916.17275 132.0 1.0
718727.55999947 4295400.82999998 110.69200134 255.0 0.0 0.0 32.0 91.0 1.0 1.0 164916.172762 64.0 1.0
718727.29000092 4295400.47999999 111.25700378 255.0 0.0 0.0 32.0 95.0 1.0 1.0 164916.172838 537.0 1.0
718727.29000092 4295400.44999999 111.33300018 255.0 0.0 0.0 32.0 96.0 1.0 1.0 164916.17285 557.0 1.0
718727.25 4295400.40000001 111.40599823 255.0 0.0 0.0 32.0 96.0 1.0 1.0 164916.172861 358.0 1.0
718727.23999977 4295400.36000001 111.48200226 255.0 0.0 0.0 32.0 97.0 1.0 1.0 164916.172869 711.0 1.0
718727.21999931 4295400.31999999 111.55799866 255.0 0.0 0.0 32.0 98.0 1.0 1.0 164916.17288 587.0 1.0
718727.22999954 4295400.28999999 111.63600159 255.0 0.0 0.0 32.0 98.0 1.0 1.0 164916.172892 338.0 1.0
718727.29999924 4295400.27000001 111.71600342 255.0 0.0 0.0 32.0 99.0 1.0 1.0 164916.172899 285.0 1.0
718727.35000038 4295400.25 111.79499817 255.0 0.0 0.0 32.0 99.0 1.0 1.0 164916.172911 313.0 1.0
718727.34000015 4295400.20999999 111.87000275 255.0 0.0 0.0 32.0 100.0 1.0 1.0 164916.172918 496.0 1.0
718727.32999992 4295400.17 111.9469986 255.0 0.0 0.0 32.0 100.0 1.0 1.0 164916.17293 430.0 1.0
718727.28000069 4295400.12 112.02300262 255.0 0.0 0.0 32.0 101.0 1.0 1.0 164916.172941 623.0 1.0
718727.27000046 4295400.08 112.09999847 255.0 0.0 0.0 32.0 101.0 1.0 1.0 164916.172949 661.0 1.0
718727.28000069 4295400.04 112.17700195 255.0 0.0 0.0 32.0 102.0 1.0 1.0 164916.17296 115.0 1.0
718727.25 4295400.0 112.25499725 255.0 0.0 0.0 32.0 102.0 1.0 1.0 164916.172972 681.0 1.0
718727.67000008 4295400.92000002 110.54399872 255.0 0.0 0.0 32.0 90.0 1.0 1.0 164916.179411 98.0 1.0
718727.64999962 4295400.88 110.61499786 255.0 0.0 0.0 32.0 90.0 1.0 1.0 164916.179418 95.0 1.0
718727.62999916 4295400.83999997 110.68399811 255.0 0.0 0.0 32.0 91.0 1.0 1.0 164916.17943 87.0 1.0
718727.29000092 4295400.47 111.23500061 255.0 0.0 0.0 32.0 95.0 1.0 1.0 164916.17951 485.0 1.0
718727.27000046 4295400.43000001 111.30799866 255.0 0.0 0.0 32.0 96.0 1.0 1.0 164916.179521 435.0 1.0
718727.26000023 4295400.38999999 111.38400269 255.0 0.0 0.0 32.0 96.0 1.0 1.0 164916.179529 444.0 1.0
718727.22999954 4295400.34999999 111.45899963 255.0 0.0 0.0 32.0 97.0 1.0 1.0 164916.179541 420.0 1.0
718727.20999908 4295400.31 111.53399658 255.0 0.0 0.0 32.0 97.0 1.0 1.0 164916.179548 613.0 1.0
718727.26000023 4295400.28 111.61399841 255.0 0.0 0.0 32.0 98.0 1.0 1.0 164916.17956 339.0 1.0
718727.31999969 4295400.25999999 111.69400024 255.0 0.0 0.0 32.0 98.0 1.0 1.0 164916.179571 219.0 1.0
718727.34000015 4295400.23 111.77100372 255.0 0.0 0.0 32.0 99.0 1.0 1.0 164916.179579 353.0 1.0
718727.31999969 4295400.19 111.84700012 255.0 0.0 0.0 32.0 100.0 1.0 1.0 164916.17959 544.0 1.0
718727.28000069 4295400.1 111.99900055 255.0 0.0 0.0 32.0 101.0 1.0 1.0 164916.179609 513.0 1.0
718727.26000023 4295400.06 112.0759964 255.0 0.0 0.0 32.0 101.0 1.0 1.0 164916.179621 493.0 1.0
718727.26000023 4295400.02 112.15399933 255.0 0.0 0.0 32.0 102.0 1.0 1.0 164916.179628 511.0 1.0
718727.65999985 4295400.89999998 110.51399994 255.0 0.0 0.0 32.0 90.0 1.0 1.0 164916.186079 119.0 1.0
718727.63999939 4295400.86000001 110.58200073 255.0 0.0 0.0 32.0 90.0 1.0 1.0 164916.18609 250.0 1.0
718727.62000084 4295400.82999998 110.65299988 255.0 0.0 0.0 32.0 91.0 1.0 1.0 164916.186102 120.0 1.0
718727.48999977 4295400.75999999 110.70500183 255.0 0.0 0.0 32.0 91.0 1.0 1.0 164916.186109 60.0 1.0
718727.28000069 4295400.46000001 111.20200348 255.0 0.0 0.0 32.0 95.0 1.0 1.0 164916.186178 304.0 1.0
718727.26000023 4295400.41999999 111.27700043 255.0 0.0 0.0 32.0 96.0 1.0 1.0 164916.18619 623.0 1.0
718727.23999977 4295400.38 111.35099792 255.0 0.0 0.0 32.0 96.0 1.0 1.0 164916.186201 286.0 1.0
718727.21999931 4295400.33000001 111.42700195 255.0 0.0 0.0 32.0 97.0 1.0 1.0 164916.186209 609.0 1.0
718727.20999908 4295400.30000001 111.50299835 255.0 0.0 0.0 32.0 97.0 1.0 1.0 164916.18622 1026.0 1.0
718727.27000046 4295400.28 111.58399963 255.0 0.0 0.0 32.0 98.0 1.0 1.0 164916.186232 319.0 1.0
718727.30999947 4295400.25 111.66300201 255.0 0.0 0.0 32.0 98.0 1.0 1.0 164916.186239 332.0 1.0
718727.34000015 4295400.22 111.73999786 255.0 0.0 0.0 32.0 99.0 1.0 1.0 164916.186251 539.0 1.0
718727.31999969 4295400.18000001 111.81500244 255.0 0.0 0.0 32.0 99.0 1.0 1.0 164916.186258 480.0 1.0
718727.29999924 4295400.14 111.89099884 255.0 0.0 0.0 32.0 100.0 1.0 1.0 164916.18627 217.0 1.0
718727.27000046 4295400.09 111.96700287 255.0 0.0 0.0 32.0 100.0 1.0 1.0 164916.186281 649.0 1.0
718727.26000023 4295400.05 112.04399872 255.0 0.0 0.0 32.0 101.0 1.0 1.0 164916.186289 461.0 1.0
718727.26000023 4295400.02 112.1210022 255.0 0.0 0.0 32.0 102.0 1.0 1.0 164916.1863 172.0 1.0
718727.63999939 4295400.85000002 110.55899811 255.0 0.0 0.0 32.0 90.0 1.0 1.0 164916.192758 143.0 1.0
718727.62000084 4295400.81 110.62999725 255.0 0.0 0.0 32.0 91.0 1.0 1.0 164916.19277 155.0 1.0
718727.59000015 4295400.76999998 110.69799805 255.0 0.0 0.0 32.0 91.0 1.0 1.0 164916.192781 63.0 1.0
718727.26000023 4295400.41 111.25299835 255.0 0.0 0.0 32.0 95.0 1.0 1.0 164916.192861 873.0 1.0
718727.25 4295400.37 111.32800293 255.0 0.0 0.0 32.0 96.0 1.0 1.0 164916.192869 747.0 1.0
718727.21999931 4295400.31999999 111.40200043 255.0 0.0 0.0 32.0 97.0 1.0 1.0 164916.192881 613.0 1.0
718727.22999954 4295400.28999999 111.47899628 255.0 0.0 0.0 32.0 97.0 1.0 1.0 164916.192888 398.0 1.0
718727.29000092 4295400.27000001 111.55999756 255.0 0.0 0.0 32.0 98.0 1.0 1.0 164916.1929 344.0 1.0
718727.35000038 4295400.25 111.63899994 255.0 0.0 0.0 32.0 98.0 1.0 1.0 164916.192911 236.0 1.0
718727.34000015 4295400.20999999 111.71499634 255.0 0.0 0.0 32.0 99.0 1.0 1.0 164916.192919 444.0 1.0
718727.31999969 4295400.17 111.79000092 255.0 0.0 0.0 32.0 99.0 1.0 1.0 164916.19293 304.0 1.0
718727.29000092 4295400.12 111.86599731 255.0 0.0 0.0 32.0 100.0 1.0 1.0 164916.192942 529.0 1.0
718727.27000046 4295400.08 111.94200134 255.0 0.0 0.0 32.0 100.0 1.0 1.0 164916.192949 681.0 1.0
718727.26000023 4295400.04 112.01899719 255.0 0.0 0.0 32.0 101.0 1.0 1.0 164916.192961 569.0 1.0
718727.26000023 4295400.01 112.09600067 255.0 0.0 0.0 32.0 101.0 1.0 1.0 164916.192968 323.0 1.0
718727.62999916 4295400.83999997 110.53199768 255.0 0.0 0.0 32.0 90.0 1.0 1.0 164916.19943 87.0 1.0
718727.62000084 4295400.80000001 110.60399628 255.0 0.0 0.0 32.0 90.0 1.0 1.0 164916.199442 102.0 1.0
718727.60000038 4295400.75999999 110.6740036 255.0 0.0 0.0 32.0 91.0 1.0 1.0 164916.199449 125.0 1.0
718727.38999939 4295400.68000001 110.71199799 255.0 0.0 0.0 32.0 92.0 1.0 1.0 164916.199461 82.0 1.0
718727.27000046 4295400.40000001 111.22599792 255.0 0.0 0.0 32.0 95.0 1.0 1.0 164916.19953 419.0 1.0
718727.23999977 4295400.36000001 111.2990036 255.0 0.0 0.0 32.0 96.0 1.0 1.0 164916.199541 502.0 1.0
718727.21999931 4295400.31 111.3730011 255.0 0.0 0.0 32.0 96.0 1.0 1.0 164916.199549 927.0 1.0
718727.23999977 4295400.28 111.4509964 255.0 0.0 0.0 32.0 97.0 1.0 1.0 164916.19956 480.0 1.0
718727.29999924 4295400.25999999 111.53299713 255.0 0.0 0.0 32.0 97.0 1.0 1.0 164916.199572 400.0 1.0
718727.34000015 4295400.23999999 111.61199951 255.0 0.0 0.0 32.0 98.0 1.0 1.0 164916.199579 504.0 1.0
718727.32999992 4295400.2 111.68699646 255.0 0.0 0.0 32.0 99.0 1.0 1.0 164916.199591 602.0 1.0
718727.32999992 4295400.16 111.76300049 255.0 0.0 0.0 32.0 99.0 1.0 1.0 164916.199598 395.0 1.0
718727.28000069 4295400.11 111.83699799 255.0 0.0 0.0 32.0 100.0 1.0 1.0 164916.19961 543.0 1.0
718727.26000023 4295400.07 111.91300201 255.0 0.0 0.0 32.0 100.0 1.0 1.0 164916.199621 667.0 1.0
718727.27000046 4295400.04 111.99099731 255.0 0.0 0.0 32.0 101.0 1.0 1.0 164916.199629 438.0 1.0
718727.62999916 4295400.82999998 110.50900269 255.0 0.0 0.0 32.0 90.0 1.0 1.0 164916.206098 129.0 1.0
718727.61000061 4295400.79000002 110.58000183 255.0 0.0 0.0 32.0 90.0 1.0 1.0 164916.20611 135.0 1.0
718727.61000061 4295400.75 110.65299988 255.0 0.0 0.0 32.0 91.0 1.0 1.0 164916.206121 142.0 1.0
718727.45999908 4295400.68000001 110.70200348 255.0 0.0 0.0 32.0 91.0 1.0 1.0 164916.206129 49.0 1.0
718727.34000015 4295400.62 110.7559967 255.0 0.0 0.0 32.0 92.0 1.0 1.0 164916.20614 401.0 1.0
718727.23999977 4295400.38 111.19999695 255.0 0.0 0.0 32.0 95.0 1.0 1.0 164916.206201 664.0 1.0
718727.23999977 4295400.34 111.27600098 255.0 0.0 0.0 32.0 96.0 1.0 1.0 164916.206209 495.0 1.0
718727.21999931 4295400.30000001 111.34999847 255.0 0.0 0.0 32.0 96.0 1.0 1.0 164916.206221 283.0 1.0
718727.26000023 4295400.28 111.43000031 255.0 0.0 0.0 32.0 97.0 1.0 1.0 164916.206228 300.0 1.0
718727.30999947 4295400.25 111.51000214 255.0 0.0 0.0 32.0 97.0 1.0 1.0 164916.20624 372.0 1.0
718727.34000015 4295400.23 111.58799744 255.0 0.0 0.0 32.0 98.0 1.0 1.0 164916.206251 445.0 1.0
718727.31999969 4295400.19 111.66300201 255.0 0.0 0.0 32.0 98.0 1.0 1.0 164916.206259 645.0 1.0
718727.30999947 4295400.15000001 111.73799896 255.0 0.0 0.0 32.0 99.0 1.0 1.0 164916.20627 139.0 1.0
718727.28000069 4295400.1 111.81400299 255.0 0.0 0.0 32.0 99.0 1.0 1.0 164916.206282 439.0 1.0
718727.27000046 4295400.06 111.88999939 255.0 0.0 0.0 32.0 100.0 1.0 1.0 164916.206289 508.0 1.0
718727.25 4295400.02 111.96700287 255.0 0.0 0.0 32.0 101.0 1.0 1.0 164916.206301 255.0 1.0
718727.61000061 4295400.77999997 110.55200195 255.0 0.0 0.0 32.0 90.0 1.0 1.0 164916.212782 132.0 1.0
718727.60000038 4295400.74000001 110.6230011 255.0 0.0 0.0 32.0 91.0 1.0 1.0 164916.212789 127.0 1.0
718727.56999969 4295400.69999999 110.69200134 255.0 0.0 0.0 32.0 91.0 1.0 1.0 164916.212801 55.0 1.0
718727.32999992 4295400.61000001 110.72499847 255.0 0.0 0.0 32.0 92.0 1.0 1.0 164916.212809 543.0 1.0
718727.32999992 4295400.56999999 110.80000305 255.0 0.0 0.0 32.0 92.0 1.0 1.0 164916.21282 369.0 1.0
718727.25 4295400.41 111.09400177 255.0 0.0 0.0 32.0 94.0 1.0 1.0 164916.212858 178.0 1.0
718727.26000023 4295400.38 111.17099762 255.0 0.0 0.0 32.0 95.0 1.0 1.0 164916.21287 441.0 1.0
718727.22999954 4295400.33000001 111.24500275 255.0 0.0 0.0 32.0 96.0 1.0 1.0 164916.212881 383.0 1.0
718727.22999954 4295400.30000001 111.32099915 255.0 0.0 0.0 32.0 96.0 1.0 1.0 164916.212889 520.0 1.0
718727.28000069 4295400.27000001 111.40100098 255.0 0.0 0.0 32.0 97.0 1.0 1.0 164916.2129 349.0 1.0
718727.34000015 4295400.25 111.48200226 255.0 0.0 0.0 32.0 97.0 1.0 1.0 164916.212912 327.0 1.0
718727.34000015 4295400.22 111.55699921 255.0 0.0 0.0 32.0 98.0 1.0 1.0 164916.212919 406.0 1.0
718727.32999992 4295400.18000001 111.63200378 255.0 0.0 0.0 32.0 98.0 1.0 1.0 164916.212931 457.0 1.0
718727.29999924 4295400.14 111.70700073 255.0 0.0 0.0 32.0 99.0 1.0 1.0 164916.212938 182.0 1.0
718727.27000046 4295400.09 111.78199768 255.0 0.0 0.0 32.0 99.0 1.0 1.0 164916.21295 750.0 1.0
718727.26000023 4295400.05 111.85900116 255.0 0.0 0.0 32.0 100.0 1.0 1.0 164916.212961 595.0 1.0
718727.27000046 4295400.02 111.93499756 255.0 0.0 0.0 32.0 100.0 1.0 1.0 164916.212969 242.0 1.0
718727.61000061 4295400.75999999 110.53099823 255.0 0.0 0.0 32.0 90.0 1.0 1.0 164916.21945 93.0 1.0
718727.59000015 4295400.73000002 110.60099792 255.0 0.0 0.0 32.0 91.0 1.0 1.0 164916.219461 108.0 1.0
718727.57999992 4295400.69 110.67099762 255.0 0.0 0.0 32.0 91.0 1.0 1.0 164916.219469 106.0 1.0
718727.34000015 4295400.60000002 110.70500183 255.0 0.0 0.0 32.0 92.0 1.0 1.0 164916.21948 121.0 1.0
718727.29999924 4295400.55000001 110.77400208 255.0 0.0 0.0 32.0 92.0 1.0 1.0 164916.219492 742.0 1.0
718727.25 4295400.40000001 111.0719986 255.0 0.0 0.0 32.0 94.0 1.0 1.0 164916.21953 411.0 1.0
718727.23999977 4295400.36000001 111.14700317 255.0 0.0 0.0 32.0 95.0 1.0 1.0 164916.219541 344.0 1.0
718727.21999931 4295400.31999999 111.22000122 255.0 0.0 0.0 32.0 95.0 1.0 1.0 164916.219549 671.0 1.0
718727.22999954 4295400.28 111.29799652 255.0 0.0 0.0 32.0 96.0 1.0 1.0 164916.219561 333.0 1.0
718727.29000092 4295400.25999999 111.3789978 255.0 0.0 0.0 32.0 96.0 1.0 1.0 164916.219568 338.0 1.0
718727.34000015 4295400.23999999 111.45999908 255.0 0.0 0.0 32.0 97.0 1.0 1.0 164916.21958 349.0 1.0
718727.32999992 4295400.2 111.53500366 255.0 0.0 0.0 32.0 98.0 1.0 1.0 164916.219591 345.0 1.0
718727.31999969 4295400.16 111.61000061 255.0 0.0 0.0 32.0 98.0 1.0 1.0 164916.219599 292.0 1.0
718727.29999924 4295400.12 111.68499756 255.0 0.0 0.0 32.0 99.0 1.0 1.0 164916.21961 426.0 1.0
718727.28000069 4295400.08 111.76000214 255.0 0.0 0.0 32.0 99.0 1.0 1.0 164916.219622 405.0 1.0
718727.23999977 4295400.03 111.83499908 255.0 0.0 0.0 32.0 100.0 1.0 1.0 164916.219629 1035.0 1.0
718727.26000023 4295400.0 111.91200256 255.0 0.0 0.0 32.0 100.0 1.0 1.0 164916.219641 253.0 1.0
718727.60000038 4295400.75 110.50099945 255.0 0.0 0.0 32.0 90.0 1.0 1.0 164916.226122 114.0 1.0
718727.59000015 4295400.70999998 110.57099915 255.0 0.0 0.0 32.0 90.0 1.0 1.0 164916.226129 159.0 1.0
718727.56999969 4295400.68000001 110.64199829 255.0 0.0 0.0 32.0 91.0 1.0 1.0 164916.226141 178.0 1.0
718727.45999908 4295400.62 110.6969986 255.0 0.0 0.0 32.0 91.0 1.0 1.0 164916.226149 54.0 1.0
718727.30999947 4295400.55000001 110.74700165 255.0 0.0 0.0 32.0 92.0 1.0 1.0 164916.22616 470.0 1.0
718727.23999977 4295400.41999999 110.96499634 255.0 0.0 0.0 32.0 94.0 1.0 1.0 164916.22619 315.0 1.0
718727.26000023 4295400.38999999 111.04299927 255.0 0.0 0.0 32.0 94.0 1.0 1.0 164916.226198 266.0 1.0
718727.23999977 4295400.34999999 111.11699677 255.0 0.0 0.0 32.0 95.0 1.0 1.0 164916.22621 354.0 1.0
718727.22999954 4295400.31 111.19200134 255.0 0.0 0.0 32.0 95.0 1.0 1.0 164916.226221 431.0 1.0
718727.25 4295400.28 111.26999664 255.0 0.0 0.0 32.0 96.0 1.0 1.0 164916.226229 470.0 1.0
718727.29000092 4295400.25999999 111.34999847 255.0 0.0 0.0 32.0 96.0 1.0 1.0 164916.22624 639.0 1.0
718727.34000015 4295400.23 111.43000031 255.0 0.0 0.0 32.0 97.0 1.0 1.0 164916.226251 307.0 1.0
718727.32999992 4295400.2 111.50499725 255.0 0.0 0.0 32.0 97.0 1.0 1.0 164916.226259 339.0 1.0
718727.32999992 4295400.16 111.58000183 255.0 0.0 0.0 32.0 98.0 1.0 1.0 164916.226271 251.0 1.0
718727.29000092 4295400.11 111.65299988 255.0 0.0 0.0 32.0 98.0 1.0 1.0 164916.226278 563.0 1.0
718727.26000023 4295400.07 111.72799683 255.0 0.0 0.0 32.0 99.0 1.0 1.0 164916.22629 718.0 1.0
718727.26000023 4295400.03 111.80500031 255.0 0.0 0.0 32.0 100.0 1.0 1.0 164916.226301 377.0 1.0
718727.26000023 4295400.0 111.88200378 255.0 0.0 0.0 32.0 100.0 1.0 1.0 164916.226309 386.0 1.0
718727.57999992 4295400.69999999 110.54799652 255.0 0.0 0.0 32.0 90.0 1.0 1.0 164916.232801 121.0 1.0
718727.54999924 4295400.62 110.69000244 255.0 0.0 0.0 32.0 91.0 1.0 1.0 164916.23282 64.0 1.0
718727.30999947 4295400.54000002 110.72499847 255.0 0.0 0.0 32.0 92.0 1.0 1.0 164916.232832 409.0 1.0
718727.29000092 4295400.49000001 110.79599762 255.0 0.0 0.0 32.0 92.0 1.0 1.0 164916.232839 603.0 1.0
718727.23999977 4295400.41 110.94100189 255.0 0.0 0.0 32.0 93.0 1.0 1.0 164916.232859 390.0 1.0
718727.22999954 4295400.37 111.01599884 255.0 0.0 0.0 32.0 94.0 1.0 1.0 164916.23287 1091.0 1.0
718727.22999954 4295400.34 111.09300232 255.0 0.0 0.0 32.0 95.0 1.0 1.0 164916.232881 556.0 1.0
718727.20999908 4295400.30000001 111.16600037 255.0 0.0 0.0 32.0 95.0 1.0 1.0 164916.232889 650.0 1.0
718727.27000046 4295400.27000001 111.24900055 255.0 0.0 0.0 32.0 96.0 1.0 1.0 164916.232901 375.0 1.0
718727.32999992 4295400.25 111.33000183 255.0 0.0 0.0 32.0 96.0 1.0 1.0 164916.232908 442.0 1.0
718727.34000015 4295400.22 111.40699768 255.0 0.0 0.0 32.0 97.0 1.0 1.0 164916.23292 405.0 1.0
718727.32999992 4295400.18000001 111.48200226 255.0 0.0 0.0 32.0 97.0 1.0 1.0 164916.232931 413.0 1.0
718727.30999947 4295400.14 111.55599976 255.0 0.0 0.0 32.0 98.0 1.0 1.0 164916.232939 307.0 1.0
718727.28000069 4295400.1 111.62999725 255.0 0.0 0.0 32.0 98.0 1.0 1.0 164916.23295 487.0 1.0
718727.26000023 4295400.06 111.70500183 255.0 0.0 0.0 32.0 99.0 1.0 1.0 164916.232962 648.0 1.0
718727.26000023 4295400.02 111.78099823 255.0 0.0 0.0 32.0 99.0 1.0 1.0 164916.232969 266.0 1.0
718727.23999977 4295399.98 111.85700226 255.0 0.0 0.0 32.0 100.0 1.0 1.0 164916.232981 551.0 1.0
718727.57999992 4295400.69 110.52100372 255.0 0.0 0.0 32.0 90.0 1.0 1.0 164916.239469 141.0 1.0
718727.54000092 4295400.61000001 110.66100311 255.0 0.0 0.0 32.0 91.0 1.0 1.0 164916.239488 150.0 1.0
718727.38999939 4295400.54000002 110.70999908 255.0 0.0 0.0 32.0 92.0 1.0 1.0 164916.2395 315.0 1.0
718727.28000069 4295400.47999999 110.76599884 255.0 0.0 0.0 32.0 92.0 1.0 1.0 164916.239511 613.0 1.0
718727.25 4295400.40000001 110.91500092 255.0 0.0 0.0 32.0 93.0 1.0 1.0 164916.23953 333.0 1.0
718727.23999977 4295400.36000001 110.98899841 255.0 0.0 0.0 32.0 94.0 1.0 1.0 164916.239542 385.0 1.0
718727.21999931 4295400.33000001 111.06300354 255.0 0.0 0.0 32.0 94.0 1.0 1.0 164916.23955 705.0 1.0
718727.20999908 4295400.28999999 111.13700104 255.0 0.0 0.0 32.0 95.0 1.0 1.0 164916.239561 519.0 1.0
718727.28000069 4295400.27000001 111.22100067 255.0 0.0 0.0 32.0 95.0 1.0 1.0 164916.239569 315.0 1.0
718727.32999992 4295400.23999999 111.3010025 255.0 0.0 0.0 32.0 96.0 1.0 1.0 164916.23958 409.0 1.0
718727.34000015 4295400.20999999 111.37799835 255.0 0.0 0.0 32.0 96.0 1.0 1.0 164916.239591 528.0 1.0
718727.32999992 4295400.18000001 111.45300293 255.0 0.0 0.0 32.0 97.0 1.0 1.0 164916.239599 283.0 1.0
718727.28000069 4295400.13 111.52400208 255.0 0.0 0.0 32.0 98.0 1.0 1.0 164916.239611 565.0 1.0
718727.27000046 4295400.09 111.59999847 255.0 0.0 0.0 32.0 98.0 1.0 1.0 164916.239618 471.0 1.0
718727.26000023 4295400.05 111.6760025 255.0 0.0 0.0 32.0 99.0 1.0 1.0 164916.23963 541.0 1.0
718727.26000023 4295400.01 111.7519989 255.0 0.0 0.0 32.0 99.0 1.0 1.0 164916.239641 222.0 1.0
718727.56999969 4295400.68000001 110.4980011 255.0 0.0 0.0 32.0 90.0 1.0 1.0 164916.246141 84.0 1.0
718727.55999947 4295400.63999999 110.56999969 255.0 0.0 0.0 32.0 90.0 1.0 1.0 164916.246149 163.0 1.0
718727.54000092 4295400.60000002 110.64099884 255.0 0.0 0.0 32.0 91.0 1.0 1.0 164916.24616 177.0 1.0
718727.46999931 4295400.55000001 110.70200348 255.0 0.0 0.0 32.0 92.0 1.0 1.0 164916.246172 539.0 1.0
718727.28000069 4295400.47 110.74500275 255.0 0.0 0.0 32.0 92.0 1.0 1.0 164916.246179 449.0 1.0
718727.25 4295400.43000001 110.81600189 255.0 0.0 0.0 32.0 93.0 1.0 1.0 164916.246191 230.0 1.0
718727.23999977 4295400.38999999 110.89099884 255.0 0.0 0.0 32.0 93.0 1.0 1.0 164916.246199 325.0 1.0
718727.23999977 4295400.34999999 110.96700287 255.0 0.0 0.0 32.0 94.0 1.0 1.0 164916.24621 556.0 1.0
718727.21999931 4295400.31 111.04000092 255.0 0.0 0.0 32.0 94.0 1.0 1.0 164916.246221 561.0 1.0
718727.22999954 4295400.28 111.1190033 255.0 0.0 0.0 32.0 95.0 1.0 1.0 164916.246229 235.0 1.0
718727.29000092 4295400.25999999 111.2009964 255.0 0.0 0.0 32.0 95.0 1.0 1.0 164916.246241 422.0 1.0
718727.34000015 4295400.23999999 111.28099823 255.0 0.0 0.0 32.0 96.0 1.0 1.0 164916.246248 817.0 1.0
718727.34000015 4295400.2 111.35600281 255.0 0.0 0.0 32.0 96.0 1.0 1.0 164916.24626 388.0 1.0
718727.31999969 4295400.16 111.43000031 255.0 0.0 0.0 32.0 97.0 1.0 1.0 164916.246271 426.0 1.0
718727.28000069 4295400.11 111.50299835 255.0 0.0 0.0 32.0 97.0 1.0 1.0 164916.246279 502.0 1.0
718727.27000046 4295400.07 111.57800293 255.0 0.0 0.0 32.0 98.0 1.0 1.0 164916.24629 493.0 1.0
718727.26000023 4295400.04 111.65299988 255.0 0.0 0.0 32.0 99.0 1.0 1.0 164916.246302 321.0 1.0
718727.26000023 4295400.0 111.72899628 255.0 0.0 0.0 32.0 99.0 1.0 1.0 164916.246309 397.0 1.0
718727.32999992 4295400.47 110.72299957 255.0 0.0 0.0 32.0 92.0 1.0 1.0 164916.252851 473.0 1.0
718727.26000023 4295400.41999999 110.78900146 255.0 0.0 0.0 32.0 92.0 1.0 1.0 164916.252859 542.0 1.0
718727.25 4295400.38 110.86199951 255.0 0.0 0.0 32.0 93.0 1.0 1.0 164916.25287 594.0 1.0
718727.22999954 4295400.34 110.93599701 255.0 0.0 0.0 32.0 93.0 1.0 1.0 164916.252882 534.0 1.0
718727.21999931 4295400.30000001 111.01100159 255.0 0.0 0.0 32.0 94.0 1.0 1.0 164916.25289 521.0 1.0
718727.25 4295400.28 111.09100342 255.0 0.0 0.0 32.0 95.0 1.0 1.0 164916.252901 278.0 1.0
718727.30999947 4295400.25 111.17299652 255.0 0.0 0.0 32.0 95.0 1.0 1.0 164916.252909 286.0 1.0
718727.34000015 4295400.23 111.25099945 255.0 0.0 0.0 32.0 96.0 1.0 1.0 164916.25292 397.0 1.0
