//X Y Z UserData ScanAngleRank NumberOfReturns ReturnNumber GpsTime Intensity Classification
100
718729.20000076 4295405.90999985 119.625 255.0 0.0 0.0 32.0 33.0 1.0 1.0 164913.310926 236.0 1.0
718729.28000069 4295405.88000011 119.73200226 255.0 0.0 0.0 32.0 34.0 1.0 1.0 164913.310938 197.0 1.0
718729.38999939 4295405.88000011 119.80500031 255.0 0.0 0.0 32.0 35.0 1.0 1.0 164913.310949 116.0 1.0
718729.44000053 4295405.82999992 119.93299866 255.0 0.0 0.0 32.0 35.0 1.0 1.0 164913.310957 98.0 1.0
718729.45000076 4295405.75 120.09799957 255.0 0.0 0.0 32.0 36.0 1.0 1.0 164913.310968 342.0 1.0
718729.42000008 4295405.6500001 120.29399872 255.0 0.0 0.0 32.0 36.0 1.0 1.0 164913.31098 222.0 1.0
718729.37999916 4295405.55000019 120.5 255.0 0.0 0.0 32.0 37.0 1.0 1.0 164913.310987 277.0 1.0
718729.32999992 4295405.42999983 120.72399902 255.0 0.0 0.0 32.0 37.0 1.0 1.0 164913.310999 249.0 1.0
718731.46999931 4295410.86999989 110.43900299 255.0 0.0 0.0 32.0 89.0 1.0 1.0 164913.316698 109.0 1.0
718730.51000023 4295408.84000015 114.16100311 255.0 0.0 0.0 32.0 11.0 1.0 1.0 164913.317186 35.0 1.0
718730.56999969 4295408.81999969 114.23500061 255.0 0.0 0.0 32.0 12.0 1.0 1.0 164913.317198 502.0 1.0
718730.57999992 4295408.77999973 114.31900024 255.0 0.0 0.0 32.0 12.0 1.0 1.0 164913.317209 114.0 1.0
718730.62999916 4295408.76000023 114.39499664 255.0 0.0 0.0 32.0 13.0 1.0 1.0 164913.317217 28.0 1.0
718730.70999908 4295408.75 114.46299744 255.0 0.0 0.0 32.0 13.0 1.0 1.0 164913.317228 19.0 1.0
718730.64999962 4295408.68000031 114.56999969 255.0 0.0 0.0 32.0 14.0 1.0 1.0 164913.31724 17.0 1.0
718730.40999985 4295408.35999966 115.10800171 255.0 0.0 0.0 32.0 17.0 1.0 1.0 164913.317289 336.0 1.0
718730.38999939 4295408.31000042 115.21199799 255.0 0.0 0.0 32.0 17.0 1.0 1.0 164913.317297 549.0 1.0
718730.45999908 4295408.28999996 115.28199768 255.0 0.0 0.0 32.0 18.0 2.0 2.0 164913.317308 17.0 2.0
718730.62000084 4295408.31999969 115.32299805 255.0 0.0 0.0 32.0 18.0 1.0 1.0 164913.31732 25.0 1.0
718730.31999969 4295408.09000015 115.63500214 255.0 0.0 0.0 32.0 19.0 1.0 1.0 164913.317339 352.0 1.0
718730.26000023 4295407.96000004 115.86399841 255.0 0.0 0.0 32.0 20.0 1.0 1.0 164913.317358 260.0 1.0
718730.23999977 4295407.9000001 115.98000336 255.0 0.0 0.0 32.0 21.0 1.0 1.0 164913.317369 214.0 1.0
718730.21999931 4295407.84000015 116.09400177 255.0 0.0 0.0 32.0 21.0 1.0 1.0 164913.317377 198.0 1.0
718730.26000023 4295407.80999994 116.18399811 255.0 0.0 0.0 32.0 22.0 1.0 1.0 164913.317388 108.0 1.0
718730.09000015 4295407.67000008 116.3730011 255.0 0.0 0.0 32.0 23.0 1.0 1.0 164913.3174 144.0 1.0
718730.10000038 4295407.63000011 116.48000336 255.0 0.0 0.0 32.0 23.0 1.0 1.0 164913.317408 150.0 1.0
718730.12999916 4295407.59000015 116.57800293 255.0 0.0 0.0 32.0 24.0 1.0 1.0 164913.317419 293.0 1.0
718730.11000061 4295407.51999998 116.7009964 255.0 0.0 0.0 32.0 24.0 1.0 1.0 164913.317427 321.0 1.0
718730.10000038 4295407.46000004 116.82499695 255.0 0.0 0.0 32.0 25.0 1.0 1.0 164913.317438 114.0 1.0
718730.07999992 4295407.38999987 116.95400238 255.0 0.0 0.0 32.0 25.0 1.0 1.0 164913.317449 356.0 1.0
718730.04999924 4295407.32000017 117.08799744 255.0 0.0 0.0 32.0 26.0 1.0 1.0 164913.317457 260.0 1.0
718730.03000069 4295407.25 117.22100067 255.0 0.0 0.0 32.0 26.0 1.0 1.0 164913.317469 196.0 1.0
718729.98999977 4295407.17999983 117.36499786 255.0 0.0 0.0 32.0 27.0 1.0 1.0 164913.317476 302.0 1.0
718729.95999908 4295407.0999999 117.50499725 255.0 0.0 0.0 32.0 27.0 1.0 1.0 164913.317488 186.0 1.0
718729.94000053 4295407.03000021 117.64499664 255.0 0.0 0.0 32.0 28.0 1.0 1.0 164913.317499 219.0 1.0
718729.90999985 4295406.94999981 117.79299927 255.0 0.0 0.0 32.0 28.0 1.0 1.0 164913.317507 386.0 1.0
718729.87999916 4295406.86999989 117.94300079 255.0 0.0 0.0 32.0 29.0 1.0 1.0 164913.317518 265.0 1.0
718729.85000038 4295406.78999996 118.09600067 255.0 0.0 0.0 32.0 30.0 1.0 1.0 164913.31753 319.0 1.0
718729.81999969 4295406.71000004 118.25499725 255.0 0.0 0.0 32.0 30.0 1.0 1.0 164913.317537 279.0 1.0
718729.79000092 4295406.61999989 118.41500092 255.0 0.0 0.0 32.0 31.0 1.0 1.0 164913.317549 302.0 1.0
718729.75 4295406.53999996 118.58000183 255.0 0.0 0.0 32.0 31.0 1.0 1.0 164913.317556 237.0 1.0
718729.71999931 4295406.44999981 118.7440033 255.0 0.0 0.0 32.0 32.0 1.0 1.0 164913.317568 277.0 1.0
718729.75 4295406.4000001 118.87000275 255.0 0.0 0.0 32.0 32.0 1.0 1.0 164913.317579 91.0 1.0
718729.20000076 4295405.90999985 119.58100128 255.0 0.0 0.0 32.0 33.0 1.0 1.0 164913.317598 271.0 1.0
718729.27000046 4295405.88000011 119.68900299 255.0 0.0 0.0 32.0 34.0 1.0 1.0 164913.31761 243.0 1.0
718729.38999939 4295405.86999989 119.76599884 255.0 0.0 0.0 32.0 34.0 1.0 1.0 164913.317617 120.0 1.0
718729.44000053 4295405.82999992 119.88700104 255.0 0.0 0.0 32.0 35.0 1.0 1.0 164913.317629 93.0 1.0
718729.45000076 4295405.76000023 120.04699707 255.0 0.0 0.0 32.0 35.0 1.0 1.0 164913.317636 328.0 1.0
718729.42000008 4295405.65999985 120.2440033 255.0 0.0 0.0 32.0 36.0 1.0 1.0 164913.317648 260.0 1.0
718729.37999916 4295405.55000019 120.4489975 255.0 0.0 0.0 32.0 37.0 1.0 1.0 164913.317659 267.0 1.0
718729.31999969 4295405.42999983 120.67900085 255.0 0.0 0.0 32.0 37.0 1.0 1.0 164913.317667 335.0 1.0
718730.48999977 4295408.81999969 114.13500214 255.0 0.0 0.0 32.0 11.0 1.0 1.0 164913.323858 30.0 1.0
718730.52000046 4295408.78999996 114.21499634 255.0 0.0 0.0 32.0 12.0 1.0 1.0 164913.32387 222.0 1.0
718730.62000084 4295408.78999996 114.27899933 255.0 0.0 0.0 32.0 12.0 1.0 1.0 164913.323877 34.0 1.0
718730.64999962 4295408.76000023 114.35800171 255.0 0.0 0.0 32.0 13.0 1.0 1.0 164913.323889 21.0 1.0
718730.70999908 4295408.73999977 114.42900085 255.0 0.0 0.0 32.0 13.0 1.0 1.0 164913.323896 110.0 1.0
718730.54999924 4295408.64000034 114.56199646 255.0 0.0 0.0 32.0 14.0 1.0 1.0 164913.323908 17.0 1.0
718730.39999962 4295408.35000038 115.07499695 255.0 0.0 0.0 32.0 16.0 1.0 1.0 164913.323957 537.0 1.0
718730.39999962 4295408.31000042 115.17099762 255.0 0.0 0.0 32.0 17.0 1.0 1.0 164913.323969 54.0 1.0
718730.30999947 4295408.07999992 115.60199738 255.0 0.0 0.0 32.0 19.0 1.0 1.0 164913.324007 325.0 1.0
718730.28000069 4295408.02000046 115.71499634 255.0 0.0 0.0 32.0 20.0 2.0 2.0 164913.324018 92.0 2.0
718730.26000023 4295407.96000004 115.8259964 255.0 0.0 0.0 32.0 20.0 1.0 1.0 164913.32403 311.0 1.0
718730.23999977 4295407.9000001 115.93900299 255.0 0.0 0.0 32.0 21.0 1.0 1.0 164913.324037 329.0 1.0
718730.21999931 4295407.84000015 116.05599976 255.0 0.0 0.0 32.0 21.0 1.0 1.0 164913.324049 128.0 1.0
718730.25 4295407.80000019 116.14700317 255.0 0.0 0.0 32.0 22.0 1.0 1.0 164913.324057 101.0 1.0
718730.09000015 4295407.67000008 116.33200073 255.0 0.0 0.0 32.0 22.0 1.0 1.0 164913.324068 147.0 1.0
718730.10000038 4295407.61999989 116.43800354 255.0 0.0 0.0 32.0 23.0 1.0 1.0 164913.324079 148.0 1.0
718730.12999916 4295407.59000015 116.53700256 255.0 0.0 0.0 32.0 23.0 1.0 1.0 164913.324087 417.0 1.0
718730.11000061 4295407.51999998 116.66100311 255.0 0.0 0.0 32.0 24.0 1.0 1.0 164913.324098 551.0 1.0
718730.09000015 4295407.46000004 116.78299713 255.0 0.0 0.0 32.0 24.0 1.0 1.0 164913.324106 449.0 1.0
718730.06999969 4295407.38999987 116.91100311 255.0 0.0 0.0 32.0 25.0 1.0 1.0 164913.324118 336.0 1.0
718730.03000069 4295407.32000017 117.0510025 255.0 0.0 0.0 32.0 26.0 1.0 1.0 164913.324129 448.0 1.0
718730.01000023 4295407.25 117.18299866 255.0 0.0 0.0 32.0 26.0 1.0 1.0 164913.324137 535.0 1.0
718730.0 4295407.17999983 117.31300354 255.0 0.0 0.0 32.0 27.0 1.0 1.0 164913.324148 284.0 1.0
718729.95999908 4295407.0999999 117.45999908 255.0 0.0 0.0 32.0 27.0 1.0 1.0 164913.32416 411.0 1.0
718729.93000031 4295407.03000021 117.59999847 255.0 0.0 0.0 32.0 28.0 1.0 1.0 164913.324167 535.0 1.0
718729.90999985 4295406.96000004 117.74199677 255.0 0.0 0.0 32.0 28.0 1.0 1.0 164913.324179 267.0 1.0
718729.88999939 4295406.88000011 117.88800049 255.0 0.0 0.0 32.0 29.0 1.0 1.0 164913.324186 241.0 1.0
718729.85000038 4295406.80000019 118.04299927 255.0 0.0 0.0 32.0 29.0 1.0 1.0 164913.324198 212.0 1.0
718729.81999969 4295406.71000004 118.19999695 255.0 0.0 0.0 32.0 30.0 1.0 1.0 164913.324209 388.0 1.0
718729.79999924 4295406.63000011 118.35399628 255.0 0.0 0.0 32.0 30.0 1.0 1.0 164913.324217 399.0 1.0
718729.76000023 4295406.55000019 118.51899719 255.0 0.0 0.0 32.0 31.0 1.0 1.0 164913.324228 259.0 1.0
718729.72999954 4295406.46000004 118.68099976 255.0 0.0 0.0 32.0 31.0 1.0 1.0 164913.32424 260.0 1.0
718729.75 4295406.40999985 118.81400299 255.0 0.0 0.0 32.0 32.0 1.0 1.0 164913.324247 92.0 1.0
718729.20000076 4295405.92000008 119.52100372 255.0 0.0 0.0 32.0 33.0 1.0 1.0 164913.324266 251.0 1.0
718729.26000023 4295405.88000011 119.63500214 255.0 0.0 0.0 32.0 34.0 1.0 1.0 164913.324278 283.0 1.0
718729.39999962 4295405.88999987 119.69400024 255.0 0.0 0.0 32.0 34.0 1.0 1.0 164913.324289 105.0 1.0
718729.45000076 4295405.8499999 119.81800079 255.0 0.0 0.0 32.0 35.0 1.0 1.0 164913.324297 149.0 1.0
718729.45000076 4295405.76999998 119.98600006 255.0 0.0 0.0 32.0 35.0 1.0 1.0 164913.324308 332.0 1.0
718729.43000031 4295405.67000008 120.17099762 255.0 0.0 0.0 32.0 36.0 1.0 1.0 164913.32432 291.0 1.0
718729.37999916 4295405.55999994 120.38200378 255.0 0.0 0.0 32.0 36.0 1.0 1.0 164913.324327 357.0 1.0
718729.34000015 4295405.44999981 120.59100342 255.0 0.0 0.0 32.0 37.0 1.0 1.0 164913.324339 223.0 1.0
718730.46999931 4295408.80000019 114.11699677 255.0 0.0 0.0 32.0 11.0 1.0 1.0 164913.330526 77.0 1.0
718730.51000023 4295408.77999973 114.19300079 255.0 0.0 0.0 32.0 11.0 1.0 1.0 164913.330538 70.0 1.0
718730.62000084 4295408.77999973 114.25499725 255.0 0.0 0.0 32.0 12.0 1.0 1.0 164913.330549 34.0 1.0
718730.63999939 4295408.75 114.33699799 255.0 0.0 0.0 32.0 12.0 1.0 1.0 164913.330557 35.0 1.0
718730.70999908 4295408.72999954 114.40699768 255.0 0.0 0.0 32.0 13.0 1.0 1.0 164913.330568 12.0 1.0
718730.76000023 4295408.71000004 114.48100281 255.0 0.0 0.0 32.0 14.0 1.0 1.0 164913.33058 32.0 1.0
718730.28000069 4295408.01000023 115.68699646 255.0 0.0 0.0 32.0 19.0 1.0 1.0 164913.330686 381.0 1.0
718730.26000023 4295407.94999981 115.7990036 255.0 0.0 0.0 32.0 20.0 1.0 1.0 164913.330698 316.0 1.0
718730.21999931 4295407.88000011 115.91799927 255.0 0.0 0.0 32.0 21.0 1.0 1.0 164913.330709 261.0 1.0
718730.20999908 4295407.82999992 116.02999878 255.0 0.0 0.0 32.0 21.0 1.0 1.0 164913.330717 193.0 1.0
718730.25 4295407.78999996 116.1210022 255.0 0.0 0.0 32.0 22.0 1.0 1.0 164913.330728 141.0 1.0
718730.09000015 4295407.67000008 116.30000305 255.0 0.0 0.0 32.0 22.0 1.0 1.0 164913.33074 132.0 1.0
718730.10000038 4295407.61999989 116.40599823 255.0 0.0 0.0 32.0 23.0 1.0 1.0 164913.330748 172.0 1.0
718730.11000061 4295407.57000017 116.51300049 255.0 0.0 0.0 32.0 23.0 1.0 1.0 164913.330759 432.0 1.0
718730.10000038 4295407.51000023 116.6309967 255.0 0.0 0.0 32.0 24.0 1.0 1.0 164913.330767 404.0 1.0
718730.07999992 4295407.44999981 116.75800323 255.0 0.0 0.0 32.0 24.0 1.0 1.0 164913.330778 314.0 1.0
718730.04999924 4295407.38000011 116.88899994 255.0 0.0 0.0 32.0 25.0 1.0 1.0 164913.330789 563.0 1.0
718730.03000069 4295407.30999994 117.01699829 255.0 0.0 0.0 32.0 25.0 1.0 1.0 164913.330797 456.0 1.0
718730.03000069 4295407.25 117.13999939 255.0 0.0 0.0 32.0 26.0 1.0 1.0 164913.330809 203.0 1.0
718729.98999977 4295407.17000008 117.28199768 255.0 0.0 0.0 32.0 27.0 1.0 1.0 164913.330816 246.0 1.0
718729.96999931 4295407.0999999 117.41999817 255.0 0.0 0.0 32.0 27.0 1.0 1.0 164913.330828 299.0 1.0
718729.95000076 4295407.03000021 117.55899811 255.0 0.0 0.0 32.0 28.0 1.0 1.0 164913.330839 284.0 1.0
718729.89999962 4295406.94999981 117.71099854 255.0 0.0 0.0 32.0 28.0 1.0 1.0 164913.330847 244.0 1.0
718729.87999916 4295406.86999989 117.85900116 255.0 0.0 0.0 32.0 29.0 1.0 1.0 164913.330858 459.0 1.0
718729.84000015 4295406.78999996 118.01200104 255.0 0.0 0.0 32.0 29.0 1.0 1.0 164913.33087 506.0 1.0
718729.82999992 4295406.71999979 118.15599823 255.0 0.0 0.0 32.0 30.0 1.0 1.0 164913.330877 202.0 1.0
718729.79999924 4295406.63000011 118.31700134 255.0 0.0 0.0 32.0 30.0 1.0 1.0 164913.330889 241.0 1.0
718729.75 4295406.53999996 118.48400116 255.0 0.0 0.0 32.0 31.0 1.0 1.0 164913.330896 405.0 1.0
718729.71999931 4295406.44999981 118.65100098 255.0 0.0 0.0 32.0 31.0 1.0 1.0 164913.330908 325.0 1.0
718729.73999977 4295406.4000001 118.78199768 255.0 0.0 0.0 32.0 32.0 1.0 1.0 164913.330919 242.0 1.0
718729.19000053 4295405.92000008 119.47799683 255.0 0.0 0.0 32.0 33.0 1.0 1.0 164913.330938 328.0 1.0
718729.27000046 4295405.88999987 119.58499908 255.0 0.0 0.0 32.0 34.0 1.0 1.0 164913.33095 228.0 1.0
718729.39999962 4295405.88999987 119.65000153 255.0 0.0 0.0 32.0 34.0 1.0 1.0 164913.330957 109.0 1.0
718729.44000053 4295405.84000015 119.77999878 255.0 0.0 0.0 32.0 35.0 1.0 1.0 164913.330969 157.0 1.0
718729.45000076 4295405.76999998 119.94100189 255.0 0.0 0.0 32.0 35.0 1.0 1.0 164913.330976 260.0 1.0
718729.43000031 4295405.67000008 120.12599945 255.0 0.0 0.0 32.0 36.0 1.0 1.0 164913.330988 269.0 1.0
718729.37000084 4295405.55999994 120.34100342 255.0 0.0 0.0 32.0 36.0 1.0 1.0 164913.330999 255.0 1.0
718729.34000015 4295405.44999981 120.54599762 255.0 0.0 0.0 32.0 37.0 1.0 1.0 164913.331007 253.0 1.0
718731.43000031 4295410.78999996 110.44100189 255.0 0.0 0.0 32.0 89.0 1.0 1.0 164913.336718 169.0 1.0
718730.47999954 4295408.85000038 113.9940033 255.0 0.0 0.0 32.0 10.0 1.0 1.0 164913.337187 188.0 1.0
718730.46999931 4295408.80000019 114.08499908 255.0 0.0 0.0 32.0 11.0 1.0 1.0 164913.337198 65.0 1.0
718730.46999931 4295408.76000023 114.17199707 255.0 0.0 0.0 32.0 11.0 1.0 1.0 164913.33721 60.0 1.0
718730.62000084 4295408.77000046 114.22299957 255.0 0.0 0.0 32.0 12.0 1.0 1.0 164913.337217 33.0 1.0
718730.67000008 4295408.75 114.29799652 255.0 0.0 0.0 32.0 12.0 1.0 1.0 164913.337229 15.0 1.0
718730.72999954 4295408.73999977 114.3690033 255.0 0.0 0.0 32.0 13.0 1.0 1.0 164913.337236 36.0 1.0
718730.63999939 4295408.61999989 114.57099915 255.0 0.0 0.0 32.0 14.0 1.0 1.0 164913.337259 21.0 1.0
718730.34000015 4295408.18000031 115.3239975 255.0 0.0 0.0 32.0 18.0 2.0 2.0 164913.337328 249.0 2.0
718730.59000015 4295408.23999977 115.32900238 255.0 0.0 0.0 32.0 18.0 1.0 1.0 164913.337339 28.0 1.0
718730.28000069 4295408.01000023 115.65000153 255.0 0.0 0.0 32.0 19.0 1.0 1.0 164913.337358 93.0 1.0
718730.26000023 4295407.94999981 115.76000214 255.0 0.0 0.0 32.0 20.0 1.0 1.0 164913.33737 455.0 1.0
718730.20999908 4295407.88000011 115.88200378 255.0 0.0 0.0 32.0 20.0 2.0 2.0 164913.337377 11.0 2.0
718730.20999908 4295407.82999992 115.98899841 255.0 0.0 0.0 32.0 21.0 1.0 1.0 164913.337389 171.0 1.0
718730.18000031 4295407.76000023 116.11000061 255.0 0.0 0.0 32.0 21.0 1.0 1.0 164913.337397 348.0 1.0
718730.21999931 4295407.73000002 116.1989975 255.0 0.0 0.0 32.0 22.0 1.0 1.0 164913.337408 130.0 1.0
718730.09000015 4295407.61000013 116.36699677 255.0 0.0 0.0 32.0 23.0 1.0 1.0 164913.337419 258.0 1.0
718730.12000084 4295407.57000017 116.46800232 255.0 0.0 0.0 32.0 23.0 1.0 1.0 164913.337427 572.0 1.0
718730.10000038 4295407.51000023 116.58599854 255.0 0.0 0.0 32.0 24.0 1.0 1.0 164913.337438 531.0 1.0
718730.07999992 4295407.44999981 116.71099854 255.0 0.0 0.0 32.0 24.0 1.0 1.0 164913.337446 379.0 1.0
718730.05999947 4295407.38000011 116.83899689 255.0 0.0 0.0 32.0 25.0 1.0 1.0 164913.337458 307.0 1.0
718730.04999924 4295407.32000017 116.96499634 255.0 0.0 0.0 32.0 25.0 1.0 1.0 164913.337469 149.0 1.0
718730.01000023 4295407.25 117.10099792 255.0 0.0 0.0 32.0 26.0 1.0 1.0 164913.337477 203.0 1.0
718729.98999977 4295407.17000008 117.23699951 255.0 0.0 0.0 32.0 26.0 1.0 1.0 164913.337488 198.0 1.0
718729.95999908 4295407.0999999 117.375 255.0 0.0 0.0 32.0 27.0 1.0 1.0 164913.3375 236.0 1.0
718729.94000053 4295407.03000021 117.51499939 255.0 0.0 0.0 32.0 27.0 1.0 1.0 164913.337507 456.0 1.0
718729.89999962 4295406.94999981 117.66500092 255.0 0.0 0.0 32.0 28.0 1.0 1.0 164913.337519 513.0 1.0
718729.87000084 4295406.86999989 117.80899811 255.0 0.0 0.0 32.0 28.0 1.0 1.0 164913.337526 426.0 1.0
718729.85000038 4295406.80000019 117.95600128 255.0 0.0 0.0 32.0 29.0 1.0 1.0 164913.337538 510.0 1.0
718729.81999969 4295406.71999979 118.10700226 255.0 0.0 0.0 32.0 30.0 1.0 1.0 164913.337549 294.0 1.0
718729.79000092 4295406.63000011 118.26799774 255.0 0.0 0.0 32.0 30.0 1.0 1.0 164913.337557 556.0 1.0
718729.76000023 4295406.55000019 118.42700195 255.0 0.0 0.0 32.0 31.0 1.0 1.0 164913.337568 351.0 1.0
718729.71999931 4295406.46000004 118.59100342 255.0 0.0 0.0 32.0 31.0 1.0 1.0 164913.33758 532.0 1.0
718729.69000053 4295406.36999989 118.76200104 255.0 0.0 0.0 32.0 32.0 1.0 1.0 164913.337587 364.0 1.0
718729.70999908 4295406.32000017 118.88899994 255.0 0.0 0.0 32.0 32.0 1.0 1.0 164913.337599 108.0 1.0
718729.19000053 4295405.92000008 119.41699982 255.0 0.0 0.0 32.0 33.0 2.0 1.0 164913.337606 125.0 1.0
718729.26000023 4295405.88999987 119.52700043 255.0 0.0 0.0 32.0 33.0 1.0 1.0 164913.337618 191.0 1.0
718729.39999962 4295405.9000001 119.58399963 255.0 0.0 0.0 32.0 34.0 1.0 1.0 164913.337629 108.0 1.0
718729.43000031 4295405.8499999 119.71900177 255.0 0.0 0.0 32.0 34.0 1.0 1.0 164913.337637 168.0 1.0
718729.44000053 4295405.76999998 119.87999725 255.0 0.0 0.0 32.0 35.0 1.0 1.0 164913.337648 344.0 1.0
718729.42000008 4295405.67999983 120.05899811 255.0 0.0 0.0 32.0 35.0 1.0 1.0 164913.33766 324.0 1.0
718729.38999939 4295405.57999992 120.25499725 255.0 0.0 0.0 32.0 36.0 1.0 1.0 164913.337667 240.0 1.0
718729.34000015 4295405.46999979 120.47299957 255.0 0.0 0.0 32.0 37.0 1.0 1.0 164913.337679 325.0 1.0
718731.47999954 4295410.78999996 110.43599701 255.0 0.0 0.0 32.0 89.0 1.0 1.0 164913.343389 151.0 1.0
718730.45000076 4295408.77999973 114.06500244 255.0 0.0 0.0 32.0 11.0 1.0 1.0 164913.343866 46.0 1.0
718730.45999908 4295408.75 114.15000153 255.0 0.0 0.0 32.0 11.0 1.0 1.0 164913.343878 63.0 1.0
718730.52000046 4295408.72999954 114.22399902 255.0 0.0 0.0 32.0 12.0 1.0 1.0 164913.343889 168.0 1.0
718730.69000053 4295408.75 114.26899719 255.0 0.0 0.0 32.0 12.0 1.0 1.0 164913.343897 60.0 1.0
718730.72999954 4295408.72999954 114.34600067 255.0 0.0 0.0 32.0 13.0 1.0 1.0 164913.343908 23.0 1.0
718730.35000038 4295408.26000023 115.09999847 255.0 0.0 0.0 32.0 16.0 2.0 2.0 164913.343977 11.0 2.0
718730.37000084 4295408.22999954 115.19000244 255.0 0.0 0.0 32.0 17.0 1.0 1.0 164913.343988 244.0 1.0
718730.32999992 4295408.11999989 115.39900208 255.0 0.0 0.0 32.0 18.0 1.0 1.0 164913.344007 229.0 1.0
718730.29000092 4295408.0 115.61599731 255.0 0.0 0.0 32.0 19.0 1.0 1.0 164913.344026 373.0 1.0
718730.23999977 4295407.92999983 115.73600006 255.0 0.0 0.0 32.0 20.0 2.0 2.0 164913.344038 28.0 2.0
718730.22999954 4295407.88000011 115.84600067 255.0 0.0 0.0 32.0 20.0 1.0 1.0 164913.344049 287.0 1.0
718730.20999908 4295407.82000017 115.95999908 255.0 0.0 0.0 32.0 21.0 1.0 1.0 164913.344057 255.0 1.0
718730.20000076 4295407.76000023 116.07099915 255.0 0.0 0.0 32.0 21.0 1.0 1.0 164913.344068 144.0 1.0
718730.22999954 4295407.73000002 116.16500092 255.0 0.0 0.0 32.0 22.0 1.0 1.0 164913.34408 95.0 1.0
718730.10000038 4295407.61000013 116.33100128 255.0 0.0 0.0 32.0 22.0 1.0 1.0 164913.344087 252.0 1.0
718730.12000084 4295407.57000017 116.43299866 255.0 0.0 0.0 32.0 23.0 1.0 1.0 164913.344099 289.0 1.0
718730.10000038 4295407.51000023 116.55500031 255.0 0.0 0.0 32.0 23.0 1.0 1.0 164913.344107 354.0 1.0
718730.07999992 4295407.44000006 116.6780014 255.0 0.0 0.0 32.0 24.0 1.0 1.0 164913.344118 438.0 1.0
718730.05999947 4295407.38000011 116.80699921 255.0 0.0 0.0 32.0 25.0 1.0 1.0 164913.344129 499.0 1.0
718730.04000092 4295407.30999994 116.93399811 255.0 0.0 0.0 32.0 25.0 1.0 1.0 164913.344137 281.0 1.0
718730.01000023 4295407.23999977 117.06800079 255.0 0.0 0.0 32.0 26.0 1.0 1.0 164913.344149 340.0 1.0
718729.97999954 4295407.17000008 117.20500183 255.0 0.0 0.0 32.0 26.0 1.0 1.0 164913.344156 404.0 1.0
718729.95000076 4295407.09000015 117.34700012 255.0 0.0 0.0 32.0 27.0 1.0 1.0 164913.344168 457.0 1.0
718729.94000053 4295407.01999998 117.47899628 255.0 0.0 0.0 32.0 27.0 1.0 1.0 164913.344179 362.0 1.0
718729.90999985 4295406.94999981 117.6230011 255.0 0.0 0.0 32.0 28.0 1.0 1.0 164913.344187 350.0 1.0
718729.88999939 4295406.88000011 117.76399994 255.0 0.0 0.0 32.0 28.0 1.0 1.0 164913.344198 178.0 1.0
718729.85000038 4295406.78999996 117.91799927 255.0 0.0 0.0 32.0 29.0 1.0 1.0 164913.34421 320.0 1.0
718729.81999969 4295406.71000004 118.07099915 255.0 0.0 0.0 32.0 29.0 1.0 1.0 164913.344217 380.0 1.0
718729.79000092 4295406.63000011 118.22899628 255.0 0.0 0.0 32.0 30.0 1.0 1.0 164913.344229 288.0 1.0
718729.76000023 4295406.55000019 118.38200378 255.0 0.0 0.0 32.0 30.0 1.0 1.0 164913.344236 230.0 1.0
718729.71999931 4295406.46000004 118.55000305 255.0 0.0 0.0 32.0 31.0 1.0 1.0 164913.344248 325.0 1.0
718729.69000053 4295406.36999989 118.71700287 255.0 0.0 0.0 32.0 32.0 1.0 1.0 164913.344259 213.0 1.0
718729.71999931 4295406.32000017 118.84600067 255.0 0.0 0.0 32.0 32.0 1.0 1.0 164913.344267 102.0 1.0
718729.19000053 4295405.92000008 119.3769989 255.0 0.0 0.0 32.0 33.0 2.0 1.0 164913.344278 101.0 1.0
718729.27000046 4295405.9000001 119.47599792 255.0 0.0 0.0 32.0 33.0 1.0 1.0 164913.34429 167.0 1.0
718729.40999985 4295405.90999985 119.53299713 255.0 0.0 0.0 32.0 34.0 1.0 1.0 164913.344297 100.0 1.0
718729.43000031 4295405.8499999 119.67500305 255.0 0.0 0.0 32.0 34.0 1.0 1.0 164913.344309 207.0 1.0
718729.44000053 4295405.76999998 119.83499908 255.0 0.0 0.0 32.0 35.0 1.0 1.0 164913.344316 323.0 1.0
718729.43000031 4295405.69000006 120.0059967 255.0 0.0 0.0 32.0 35.0 1.0 1.0 164913.344328 244.0 1.0
718729.38999939 4295405.57999992 120.21099854 255.0 0.0 0.0 32.0 36.0 1.0 1.0 164913.344339 367.0 1.0
718729.35000038 4295405.46999979 120.41799927 255.0 0.0 0.0 32.0 36.0 1.0 1.0 164913.344347 208.0 1.0
718730.47999954 4295408.82999992 113.94200134 255.0 0.0 0.0 32.0 10.0 1.0 1.0 164913.350527 450.0 1.0
718730.45999908 4295408.73999977 114.11799622 255.0 0.0 0.0 32.0 11.0 1.0 1.0 164913.35055 41.0 1.0
718730.46999931 4295408.69999981 114.20300293 255.0 0.0 0.0 32.0 11.0 1.0 1.0 164913.350557 60.0 1.0
718730.70000076 4295408.75 114.23400116 255.0 0.0 0.0 32.0 12.0 1.0 1.0 164913.350569 23.0 1.0
718730.5 4295408.63000011 114.37200165 255.0 0.0 0.0 32.0 13.0 1.0 1.0 164913.350576 262.0 1.0
718730.37999916 4295408.27000046 115.05599976 255.0 0.0 0.0 32.0 16.0 1.0 1.0 164913.350649 570.0 1.0
718730.35000038 4295408.17000008 115.25900269 255.0 0.0 0.0 32.0 17.0 2.0 2.0 164913.350668 203.0 2.0
718730.23999977 4295407.88000011 115.8030014 255.0 0.0 0.0 32.0 20.0 1.0 1.0 164913.350717 265.0 1.0
718730.20999908 4295407.82000017 115.92099762 255.0 0.0 0.0 32.0 21.0 1.0 1.0 164913.350729 281.0 1.0
718730.18000031 4295407.75 116.03900146 255.0 0.0 0.0 32.0 21.0 1.0 1.0 164913.350737 188.0 1.0
718730.22999954 4295407.71999979 116.12599945 255.0 0.0 0.0 32.0 22.0 1.0 1.0 164913.350748 107.0 1.0
718730.10000038 4295407.61000013 116.29000092 255.0 0.0 0.0 32.0 22.0 1.0 1.0 164913.350759 224.0 1.0
718730.12000084 4295407.57000017 116.39199829 255.0 0.0 0.0 32.0 23.0 1.0 1.0 164913.350767 737.0 1.0
718730.11000061 4295407.51000023 116.51000214 255.0 0.0 0.0 32.0 23.0 1.0 1.0 164913.350778 282.0 1.0
718730.06999969 4295407.44000006 116.64099884 255.0 0.0 0.0 32.0 24.0 1.0 1.0 164913.350786 519.0 1.0
718730.04999924 4295407.36999989 116.76699829 255.0 0.0 0.0 32.0 24.0 1.0 1.0 164913.350798 298.0 1.0
718730.04000092 4295407.30999994 116.88800049 255.0 0.0 0.0 32.0 25.0 1.0 1.0 164913.350809 327.0 1.0
718730.01000023 4295407.23999977 117.02200317 255.0 0.0 0.0 32.0 25.0 1.0 1.0 164913.350817 373.0 1.0
718729.98999977 4295407.17000008 117.15299988 255.0 0.0 0.0 32.0 26.0 1.0 1.0 164913.350828 337.0 1.0
718729.96999931 4295407.0999999 117.28800201 255.0 0.0 0.0 32.0 27.0 1.0 1.0 164913.35084 229.0 1.0
718729.94000053 4295407.03000021 117.43000031 255.0 0.0 0.0 32.0 27.0 1.0 1.0 164913.350847 263.0 1.0
718729.92000008 4295406.94999981 117.56900024 255.0 0.0 0.0 32.0 28.0 1.0 1.0 164913.350859 302.0 1.0
718729.87999916 4295406.86999989 117.71900177 255.0 0.0 0.0 32.0 28.0 1.0 1.0 164913.350866 371.0 1.0
718729.87000084 4295406.80000019 117.85800171 255.0 0.0 0.0 32.0 29.0 1.0 1.0 164913.350878 253.0 1.0
718729.81999969 4295406.71000004 118.02100372 255.0 0.0 0.0 32.0 29.0 1.0 1.0 164913.350889 414.0 1.0
718729.79999924 4295406.63999987 118.16999817 255.0 0.0 0.0 32.0 30.0 1.0 1.0 164913.350897 160.0 1.0
718729.77000046 4295406.55999994 118.32299805 255.0 0.0 0.0 32.0 30.0 1.0 1.0 164913.350908 273.0 1.0
718729.72999954 4295406.46000004 118.4940033 255.0 0.0 0.0 32.0 31.0 1.0 1.0 164913.35092 295.0 1.0
718729.70999908 4295406.38000011 118.65000153 255.0 0.0 0.0 32.0 31.0 1.0 1.0 164913.350927 264.0 1.0
718729.71999931 4295406.32999992 118.78500366 255.0 0.0 0.0 32.0 32.0 1.0 1.0 164913.350939 157.0 1.0
718729.25 4295405.88999987 119.43199921 255.0 0.0 0.0 32.0 33.0 1.0 1.0 164913.350958 358.0 1.0
718729.39999962 4295405.90999985 119.47599792 255.0 0.0 0.0 32.0 34.0 1.0 1.0 164913.350969 178.0 1.0
718729.43000031 4295405.8499999 119.61399841 255.0 0.0 0.0 32.0 34.0 1.0 1.0 164913.350977 133.0 1.0
718729.43000031 4295405.76999998 119.78099823 255.0 0.0 0.0 32.0 35.0 1.0 1.0 164913.350988 171.0 1.0
718729.45000076 4295405.71000004 119.92900085 255.0 0.0 0.0 32.0 35.0 1.0 1.0 164913.351 238.0 1.0
718729.38999939 4295405.59000015 120.14399719 255.0 0.0 0.0 32.0 36.0 1.0 1.0 164913.351007 379.0 1.0
718729.35000038 4295405.48999977 120.34700012 255.0 0.0 0.0 32.0 36.0 1.0 1.0 164913.351019 266.0 1.0
718729.29999924 4295405.36999989 120.56400299 255.0 0.0 0.0 32.0 37.0 1.0 1.0 164913.351026 263.0 1.0
718731.37999916 4295410.71000004 110.44799805 255.0 0.0 0.0 32.0 89.0 1.0 1.0 164913.356737 146.0 1.0
718730.52000046 4295408.67000008 114.25700378 255.0 0.0 0.0 32.0 12.0 1.0 1.0 164913.357237 272.0 1.0
718730.76000023 4295408.72000027 114.28299713 255.0 0.0 0.0 32.0 12.0 1.0 1.0 164913.357248 76.0 1.0
718730.21999931 4295407.86000013 115.78500366 255.0 0.0 0.0 32.0 20.0 1.0 1.0 164913.357389 282.0 1.0
718730.20000076 4295407.80000019 115.89800262 255.0 0.0 0.0 32.0 20.0 2.0 2.0 164913.357397 19.0 2.0
718730.18000031 4295407.75 116.00900269 255.0 0.0 0.0 32.0 21.0 1.0 1.0 164913.357408 190.0 1.0
718730.19000053 4295407.69999981 116.11100006 255.0 0.0 0.0 32.0 22.0 1.0 1.0 164913.35742 159.0 1.0
718730.20000076 4295407.6500001 116.21900177 255.0 0.0 0.0 32.0 22.0 1.0 1.0 164913.357427 149.0 1.0
718730.12000084 4295407.55999994 116.36199951 255.0 0.0 0.0 32.0 23.0 1.0 1.0 164913.357439 371.0 1.0
718730.10000038 4295407.5 116.48300171 255.0 0.0 0.0 32.0 23.0 1.0 1.0 164913.357447 359.0 1.0
718730.06999969 4295407.42999983 116.61399841 255.0 0.0 0.0 32.0 24.0 1.0 1.0 164913.357458 516.0 1.0
718730.04999924 4295407.36000013 116.73699951 255.0 0.0 0.0 32.0 24.0 1.0 1.0 164913.357469 463.0 1.0
718730.04000092 4295407.30999994 116.85600281 255.0 0.0 0.0 32.0 25.0 1.0 1.0 164913.357477 333.0 1.0
718730.02000046 4295407.23999977 116.98400116 255.0 0.0 0.0 32.0 25.0 1.0 1.0 164913.357489 273.0 1.0
718729.98999977 4295407.15999985 117.125 255.0 0.0 0.0 32.0 26.0 1.0 1.0 164913.357496 408.0 1.0
718729.95999908 4295407.09000015 117.26000214 255.0 0.0 0.0 32.0 26.0 1.0 1.0 164913.357508 328.0 1.0
718729.94000053 4295407.01999998 117.39499664 255.0 0.0 0.0 32.0 27.0 1.0 1.0 164913.357519 227.0 1.0
718729.90999985 4295406.94000006 117.54000092 255.0 0.0 0.0 32.0 27.0 1.0 1.0 164913.357527 294.0 1.0
718729.87999916 4295406.86999989 117.68399811 255.0 0.0 0.0 32.0 28.0 1.0 1.0 164913.357538 308.0 1.0
718729.85000038 4295406.78999996 117.83499908 255.0 0.0 0.0 32.0 29.0 1.0 1.0 164913.35755 407.0 1.0
718729.81999969 4295406.71000004 117.98600006 255.0 0.0 0.0 32.0 29.0 1.0 1.0 164913.357557 374.0 1.0
718729.79999924 4295406.63000011 118.13400269 255.0 0.0 0.0 32.0 30.0 1.0 1.0 164913.357569 354.0 1.0
718729.76000023 4295406.55000019 118.29399872 255.0 0.0 0.0 32.0 30.0 1.0 1.0 164913.357576 406.0 1.0
718729.72999954 4295406.46000004 118.45300293 255.0 0.0 0.0 32.0 31.0 1.0 1.0 164913.357588 256.0 1.0
718729.69000053 4295406.36999989 118.62000275 255.0 0.0 0.0 32.0 31.0 1.0 1.0 164913.357599 304.0 1.0
718729.68000031 4295406.28999996 118.77799988 255.0 0.0 0.0 32.0 32.0 1.0 1.0 164913.357607 293.0 1.0
718729.25 4295405.88999987 119.38899994 255.0 0.0 0.0 32.0 33.0 1.0 1.0 164913.35763 293.0 1.0
718729.42000008 4295405.92000008 119.41899872 255.0 0.0 0.0 32.0 33.0 1.0 1.0 164913.357637 90.0 1.0
718729.43000031 4295405.8499999 119.57099915 255.0 0.0 0.0 32.0 34.0 1.0 1.0 164913.357649 136.0 1.0
718729.43000031 4295405.78000021 119.73200226 255.0 0.0 0.0 32.0 35.0 1.0 1.0 164913.357656 166.0 1.0
718729.45000076 4295405.71000004 119.8809967 255.0 0.0 0.0 32.0 35.0 1.0 1.0 164913.357668 263.0 1.0
718729.38999939 4295405.59000015 120.09999847 255.0 0.0 0.0 32.0 36.0 1.0 1.0 164913.357679 327.0 1.0
718729.36000061 4295405.48999977 120.29100037 255.0 0.0 0.0 32.0 36.0 1.0 1.0 164913.357687 273.0 1.0
718731.44000053 4295410.71000004 110.43900299 255.0 0.0 0.0 32.0 89.0 1.0 1.0 164913.363409 119.0 1.0
718730.51000023 4295408.65999985 114.22699738 255.0 0.0 0.0 32.0 12.0 1.0 1.0 164913.363909 483.0 1.0
718730.47999954 4295408.52000046 114.50299835 255.0 0.0 0.0 32.0 13.0 1.0 1.0 164913.363939 74.0 1.0
718730.35000038 4295408.19999981 115.10099792 255.0 0.0 0.0 32.0 17.0 1.0 1.0 164913.363996 344.0 1.0
718730.51000023 4295408.22000027 115.14099884 255.0 0.0 0.0 32.0 17.0 1.0 1.0 164913.364008 35.0 1.0
718730.51000023 4295408.13000011 115.33200073 255.0 0.0 0.0 32.0 18.0 1.0 1.0 164913.364027 23.0 1.0
718730.26000023 4295407.92000008 115.62799835 255.0 0.0 0.0 32.0 19.0 1.0 1.0 164913.36405 415.0 1.0
718730.22999954 4295407.86000013 115.74099731 255.0 0.0 0.0 32.0 20.0 1.0 1.0 164913.364057 277.0 1.0
718730.20999908 4295407.80999994 115.85199738 255.0 0.0 0.0 32.0 20.0 1.0 1.0 164913.364069 210.0 1.0
718730.19000053 4295407.75 115.96499634 255.0 0.0 0.0 32.0 21.0 1.0 1.0 164913.364077 209.0 1.0
718730.17000008 4295407.69000006 116.08200073 255.0 0.0 0.0 32.0 21.0 1.0 1.0 164913.364088 162.0 1.0
718730.19000053 4295407.6500001 116.17900085 255.0 0.0 0.0 32.0 22.0 1.0 1.0 164913.364099 157.0 1.0
718730.12000084 4295407.55999994 116.31999969 255.0 0.0 0.0 32.0 22.0 1.0 1.0 164913.364107 309.0 1.0
718730.10000038 4295407.5 116.44100189 255.0 0.0 0.0 32.0 23.0 1.0 1.0 164913.364118 344.0 1.0
718730.05999947 4295407.42000008 116.57099915 255.0 0.0 0.0 32.0 24.0 1.0 1.0 164913.364126 386.0 1.0
718730.04999924 4295407.36000013 116.69400024 255.0 0.0 0.0 32.0 24.0 1.0 1.0 164913.364138 449.0 1.0
718730.03000069 4295407.30000019 116.81700134 255.0 0.0 0.0 32.0 25.0 1.0 1.0 164913.364149 346.0 1.0
718730.02000046 4295407.23999977 116.94300079 255.0 0.0 0.0 32.0 25.0 1.0 1.0 164913.364157 416.0 1.0
718729.98999977 4295407.17000008 117.0759964 255.0 0.0 0.0 32.0 26.0 1.0 1.0 164913.364168 297.0 1.0
718729.95000076 4295407.09000015 117.21700287 255.0 0.0 0.0 32.0 26.0 1.0 1.0 164913.36418 404.0 1.0
718729.94000053 4295407.01999998 117.34899902 255.0 0.0 0.0 32.0 27.0 1.0 1.0 164913.364187 339.0 1.0
718729.89999962 4295406.94000006 117.49700165 255.0 0.0 0.0 32.0 27.0 1.0 1.0 164913.364199 492.0 1.0
718729.88999939 4295406.86999989 117.6309967 255.0 0.0 0.0 32.0 28.0 1.0 1.0 164913.364206 390.0 1.0
718729.86000061 4295406.80000019 117.77799988 255.0 0.0 0.0 32.0 28.0 1.0 1.0 164913.364218 206.0 1.0
718729.81999969 4295406.71000004 117.93399811 255.0 0.0 0.0 32.0 29.0 1.0 1.0 164913.364229 527.0 1.0
718729.79999924 4295406.63999987 118.07900238 255.0 0.0 0.0 32.0 29.0 1.0 1.0 164913.364237 414.0 1.0
718729.77000046 4295406.55000019 118.23600006 255.0 0.0 0.0 32.0 30.0 1.0 1.0 164913.364248 261.0 1.0
718729.73999977 4295406.46999979 118.39099884 255.0 0.0 0.0 32.0 31.0 1.0 1.0 164913.36426 262.0 1.0
718729.69000053 4295406.38000011 118.56600189 255.0 0.0 0.0 32.0 31.0 1.0 1.0 164913.364267 531.0 1.0
718729.65999985 4295406.28999996 118.73200226 255.0 0.0 0.0 32.0 32.0 1.0 1.0 164913.364279 337.0 1.0
718729.69000053 4295406.23999977 118.86000061 255.0 0.0 0.0 32.0 32.0 1.0 1.0 164913.364286 145.0 1.0
718729.25 4295405.9000001 119.3259964 255.0 0.0 0.0 32.0 33.0 1.0 1.0 164913.364298 230.0 1.0
718729.39999962 4295405.92000008 119.37000275 255.0 0.0 0.0 32.0 33.0 1.0 1.0 164913.364309 228.0 1.0
718729.42000008 4295405.86000013 119.51399994 255.0 0.0 0.0 32.0 34.0 1.0 1.0 164913.364317 97.0 1.0
718729.44000053 4295405.78999996 119.66600037 255.0 0.0 0.0 32.0 34.0 1.0 1.0 164913.364328 132.0 1.0
718729.45999908 4295405.73000002 119.80799866 255.0 0.0 0.0 32.0 35.0 1.0 1.0 164913.36434 245.0 1.0
718729.39999962 4295405.61000013 120.02200317 255.0 0.0 0.0 32.0 35.0 1.0 1.0 164913.364347 344.0 1.0
718729.36000061 4295405.5 120.22399902 255.0 0.0 0.0 32.0 36.0 1.0 1.0 164913.364359 266.0 1.0
718730.44000053 4295408.61999989 114.21900177 255.0 0.0 0.0 32.0 12.0 1.0 1.0 164913.370577 87.0 1.0
718730.47999954 4295408.59000015 114.29799652 255.0 0.0 0.0 32.0 12.0 1.0 1.0 164913.370588 652.0 1.0
718730.48999977 4295408.47000027 114.56199646 255.0 0.0 0.0 32.0 14.0 1.0 1.0 164913.370619 22.0 1.0
718730.35000038 4295408.18999958 115.0719986 255.0 0.0 0.0 32.0 16.0 1.0 1.0 164913.370668 584.0 1.0
718730.51000023 4295408.21000004 115.11399841 255.0 0.0 0.0 32.0 17.0 1.0 1.0 164913.37068 38.0 1.0
718730.30999947 4295408.07999992 115.27799988 255.0 0.0 0.0 32.0 17.0 2.0 2.0 164913.370687 114.0 2.0
718730.45000076 4295408.10000038 115.3259964 255.0 0.0 0.0 32.0 18.0 1.0 1.0 164913.370699 36.0 1.0
718730.22999954 4295407.86000013 115.71099854 255.0 0.0 0.0 32.0 20.0 1.0 1.0 164913.370729 202.0 1.0
718730.20000076 4295407.80000019 115.8239975 255.0 0.0 0.0 32.0 20.0 1.0 1.0 164913.370737 263.0 1.0
718730.19000053 4295407.73999977 115.93699646 255.0 0.0 0.0 32.0 21.0 1.0 1.0 164913.370748 202.0 1.0
718730.15999985 4295407.67000008 116.05599976 255.0 0.0 0.0 32.0 21.0 1.0 1.0 164913.37076 290.0 1.0
718730.19000053 4295407.63999987 116.14600372 255.0 0.0 0.0 32.0 22.0 1.0 1.0 164913.370767 81.0 1.0
718730.11000061 4295407.55000019 116.29399872 255.0 0.0 0.0 32.0 22.0 1.0 1.0 164913.370779 346.0 1.0
718730.09000015 4295407.48999977 116.41100311 255.0 0.0 0.0 32.0 23.0 1.0 1.0 164913.370787 397.0 1.0
718730.06999969 4295407.42000008 116.53700256 255.0 0.0 0.0 32.0 23.0 1.0 1.0 164913.370798 411.0 1.0
718730.04999924 4295407.36000013 116.65899658 255.0 0.0 0.0 32.0 24.0 1.0 1.0 164913.370809 460.0 1.0
718730.02000046 4295407.28999996 116.78600311 255.0 0.0 0.0 32.0 24.0 1.0 1.0 164913.370817 328.0 1.0
718730.01000023 4295407.23000002 116.91100311 255.0 0.0 0.0 32.0 25.0 1.0 1.0 164913.370829 425.0 1.0
718729.97999954 4295407.15999985 117.04499817 255.0 0.0 0.0 32.0 26.0 1.0 1.0 164913.370836 339.0 1.0
718729.94000053 4295407.07999992 117.18699646 255.0 0.0 0.0 32.0 26.0 1.0 1.0 164913.370848 558.0 1.0
718729.93000031 4295407.01000023 117.31900024 255.0 0.0 0.0 32.0 27.0 1.0 1.0 164913.370859 493.0 1.0
718729.90999985 4295406.94000006 117.45500183 255.0 0.0 0.0 32.0 27.0 1.0 1.0 164913.370867 381.0 1.0
718729.88999939 4295406.86999989 117.58899689 255.0 0.0 0.0 32.0 28.0 1.0 1.0 164913.370878 376.0 1.0
718729.86000061 4295406.80000019 117.73600006 255.0 0.0 0.0 32.0 28.0 1.0 1.0 164913.37089 218.0 1.0
718729.81999969 4295406.71000004 117.89399719 255.0 0.0 0.0 32.0 29.0 1.0 1.0 164913.370897 419.0 1.0
718729.78000069 4295406.63000011 118.0490036 255.0 0.0 0.0 32.0 29.0 1.0 1.0 164913.370909 245.0 1.0
718729.76000023 4295406.55000019 118.1989975 255.0 0.0 0.0 32.0 30.0 1.0 1.0 164913.370916 418.0 1.0
718729.72999954 4295406.46000004 118.35900116 255.0 0.0 0.0 32.0 30.0 1.0 1.0 164913.370928 400.0 1.0
718729.70000076 4295406.38000011 118.51899719 255.0 0.0 0.0 32.0 31.0 1.0 1.0 164913.370939 290.0 1.0
718729.65999985 4295406.28999996 118.68699646 255.0 0.0 0.0 32.0 31.0 1.0 1.0 164913.370947 361.0 1.0
718729.70000076 4295406.23999977 118.80799866 255.0 0.0 0.0 32.0 32.0 1.0 1.0 164913.370958 83.0 1.0
718729.25 4295405.9000001 119.28199768 255.0 0.0 0.0 32.0 33.0 1.0 1.0 164913.37097 249.0 1.0
718729.39999962 4295405.92000008 119.32800293 255.0 0.0 0.0 32.0 33.0 1.0 1.0 164913.370977 186.0 1.0
718729.40999985 4295405.8499999 119.47399902 255.0 0.0 0.0 32.0 34.0 1.0 1.0 164913.370989 103.0 1.0
718729.44000053 4295405.78999996 119.61100006 255.0 0.0 0.0 32.0 34.0 1.0 1.0 164913.370996 95.0 1.0
718729.45000076 4295405.71999979 119.76499939 255.0 0.0 0.0 32.0 35.0 1.0 1.0 164913.371008 210.0 1.0
718729.40999985 4295405.61999989 119.96700287 255.0 0.0 0.0 32.0 35.0 1.0 1.0 164913.371019 239.0 1.0
718729.37000084 4295405.51000023 120.16999817 255.0 0.0 0.0 32.0 36.0 1.0 1.0 164913.371027 245.0 1.0
718729.31999969 4295405.4000001 120.3809967 255.0 0.0 0.0 32.0 36.0 1.0 1.0 164913.371038 310.0 1.0
718731.34000015 4295410.64000034 110.45300293 255.0 0.0 0.0 32.0 89.0 1.0 1.0 164913.376757 157.0 1.0
718730.47999954 4295408.59000015 114.26799774 255.0 0.0 0.0 32.0 12.0 1.0 1.0 164913.377256 485.0 1.0
718730.47999954 4295408.55000019 114.35700226 255.0 0.0 0.0 32.0 12.0 1.0 1.0 164913.377268 161.0 1.0
718730.29999924 4295408.02999973 115.34799957 255.0 0.0 0.0 32.0 18.0 1.0 1.0 164913.377367 379.0 1.0
718730.20999908 4295407.78999996 115.78800201 255.0 0.0 0.0 32.0 20.0 1.0 1.0 164913.377409 242.0 1.0
718730.17000008 4295407.73000002 115.90599823 255.0 0.0 0.0 32.0 21.0 1.0 1.0 164913.377417 173.0 1.0
718730.15999985 4295407.67000008 116.01499939 255.0 0.0 0.0 32.0 21.0 1.0 1.0 164913.377428 160.0 1.0
718730.17000008 4295407.61999989 116.1210022 255.0 0.0 0.0 32.0 22.0 1.0 1.0 164913.377439 213.0 1.0
718730.15999985 4295407.57000017 116.23300171 255.0 0.0 0.0 32.0 22.0 1.0 1.0 164913.377447 105.0 1.0
718730.09000015 4295407.48000002 116.3769989 255.0 0.0 0.0 32.0 23.0 1.0 1.0 164913.377458 443.0 1.0
718730.06999969 4295407.42000008 116.4980011 255.0 0.0 0.0 32.0 23.0 1.0 1.0 164913.377466 375.0 1.0
718730.04999924 4295407.3499999 116.6210022 255.0 0.0 0.0 32.0 24.0 1.0 1.0 164913.377478 442.0 1.0
718730.03000069 4295407.28999996 116.74299622 255.0 0.0 0.0 32.0 24.0 1.0 1.0 164913.377489 282.0 1.0
718730.0 4295407.21999979 116.87599945 255.0 0.0 0.0 32.0 25.0 1.0 1.0 164913.377497 357.0 1.0
718729.98999977 4295407.15999985 117.00099945 255.0 0.0 0.0 32.0 25.0 1.0 1.0 164913.377508 350.0 1.0
718729.95999908 4295407.07999992 117.13600159 255.0 0.0 0.0 32.0 26.0 1.0 1.0 164913.37752 421.0 1.0
718729.93000031 4295407.01000023 117.27200317 255.0 0.0 0.0 32.0 26.0 1.0 1.0 164913.377527 325.0 1.0
718729.90999985 4295406.94000006 117.40899658 255.0 0.0 0.0 32.0 27.0 1.0 1.0 164913.377539 309.0 1.0
718729.87999916 4295406.86999989 117.55200195 255.0 0.0 0.0 32.0 28.0 1.0 1.0 164913.377546 371.0 1.0
718729.85000038 4295406.78999996 117.69799805 255.0 0.0 0.0 32.0 28.0 1.0 1.0 164913.377558 423.0 1.0
718729.81999969 4295406.71000004 117.84799957 255.0 0.0 0.0 32.0 29.0 1.0 1.0 164913.377569 412.0 1.0
718729.79999924 4295406.63999987 117.99299622 255.0 0.0 0.0 32.0 29.0 1.0 1.0 164913.377577 272.0 1.0
718729.76000023 4295406.55000019 118.15100098 255.0 0.0 0.0 32.0 30.0 1.0 1.0 164913.377588 292.0 1.0
718729.72999954 4295406.46999979 118.30799866 255.0 0.0 0.0 32.0 30.0 1.0 1.0 164913.3776 184.0 1.0
718729.70000076 4295406.38999987 118.46700287 255.0 0.0 0.0 32.0 31.0 1.0 1.0 164913.377607 333.0 1.0
718729.67000008 4295406.30000019 118.63200378 255.0 0.0 0.0 32.0 31.0 1.0 1.0 164913.377619 248.0 1.0
718729.65999985 4295406.21999979 118.78600311 255.0 0.0 0.0 32.0 32.0 1.0 1.0 164913.377626 298.0 1.0
718729.23999977 4295405.9000001 119.23100281 255.0 0.0 0.0 32.0 32.0 1.0 1.0 164913.377638 270.0 1.0
718729.39999962 4295405.92000008 119.27300262 255.0 0.0 0.0 32.0 33.0 1.0 1.0 164913.377649 225.0 1.0
718729.40999985 4295405.86000013 119.41799927 255.0 0.0 0.0 32.0 33.0 1.0 1.0 164913.377657 142.0 1.0
718729.44000053 4295405.80000019 119.55599976 255.0 0.0 0.0 32.0 34.0 1.0 1.0 164913.377668 107.0 1.0
718729.45999908 4295405.73000002 119.70600128 255.0 0.0 0.0 32.0 35.0 1.0 1.0 164913.37768 278.0 1.0
718729.39999962 4295405.61999989 119.91200256 255.0 0.0 0.0 32.0 35.0 1.0 1.0 164913.377687 341.0 1.0
718729.37000084 4295405.51999998 120.10700226 255.0 0.0 0.0 32.0 36.0 1.0 1.0 164913.377699 263.0 1.0
718731.36000061 4295410.63000011 110.44200134 255.0 0.0 0.0 32.0 89.0 1.0 1.0 164913.383428 150.0 1.0
718730.47999954 4295408.57999992 114.2460022 255.0 0.0 0.0 32.0 12.0 1.0 1.0 164913.383928 276.0 1.0
718730.45999908 4295408.52999973 114.33899689 255.0 0.0 0.0 32.0 12.0 1.0 1.0 164913.38394 454.0 1.0
718730.45000076 4295408.47999954 114.43000031 255.0 0.0 0.0 32.0 13.0 1.0 1.0 164913.383947 288.0 1.0
718730.51000023 4295408.46000004 114.5039978 255.0 0.0 0.0 32.0 13.0 1.0 1.0 164913.383959 17.0 1.0
718730.31999969 4295408.11999989 115.12200165 255.0 0.0 0.0 32.0 17.0 1.0 1.0 164913.38402 553.0 1.0
718730.30999947 4295408.06999969 115.22100067 255.0 0.0 0.0 32.0 17.0 1.0 1.0 164913.384027 323.0 1.0
718730.28000069 4295408.01000023 115.32700348 255.0 0.0 0.0 32.0 18.0 1.0 1.0 164913.384039 566.0 1.0
718730.27000046 4295407.96000004 115.43299866 255.0 0.0 0.0 32.0 18.0 2.0 2.0 164913.384046 243.0 2.0
718730.19000053 4295407.78000021 115.76599884 255.0 0.0 0.0 32.0 20.0 1.0 1.0 164913.384077 339.0 1.0
718730.18000031 4295407.71999979 115.8769989 255.0 0.0 0.0 32.0 20.0 1.0 1.0 164913.384088 230.0 1.0
718730.15999985 4295407.65999985 115.98799896 255.0 0.0 0.0 32.0 21.0 1.0 1.0 164913.3841 264.0 1.0
718730.13999939 4295407.5999999 116.10600281 255.0 0.0 0.0 32.0 21.0 1.0 1.0 164913.384107 149.0 1.0
718730.15999985 4295407.55999994 116.20200348 255.0 0.0 0.0 32.0 22.0 1.0 1.0 164913.384119 132.0 1.0
718730.10000038 4295407.48000002 116.33999634 255.0 0.0 0.0 32.0 23.0 1.0 1.0 164913.384127 234.0 1.0
718730.05999947 4295407.40999985 116.47100067 255.0 0.0 0.0 32.0 23.0 1.0 1.0 164913.384138 504.0 1.0
718730.04000092 4295407.34000015 116.59200287 255.0 0.0 0.0 32.0 24.0 1.0 1.0 164913.384149 353.0 1.0
718730.01000023 4295407.28000021 116.72000122 255.0 0.0 0.0 32.0 24.0 1.0 1.0 164913.384157 484.0 1.0
718729.98999977 4295407.21000004 116.84899902 255.0 0.0 0.0 32.0 25.0 1.0 1.0 164913.384169 606.0 1.0
718729.97999954 4295407.1500001 116.97299957 255.0 0.0 0.0 32.0 25.0 1.0 1.0 164913.384176 338.0 1.0
718729.94000053 4295407.07000017 117.11199951 255.0 0.0 0.0 32.0 26.0 1.0 1.0 164913.384188 339.0 1.0
718729.93000031 4295407.01000023 117.23899841 255.0 0.0 0.0 32.0 26.0 1.0 1.0 164913.384199 142.0 1.0
718729.88999939 4295406.92999983 117.38400269 255.0 0.0 0.0 32.0 27.0 1.0 1.0 164913.384207 289.0 1.0
718729.87999916 4295406.86000013 117.51799774 255.0 0.0 0.0 32.0 27.0 1.0 1.0 164913.384218 382.0 1.0
718729.85000038 4295406.78999996 117.66100311 255.0 0.0 0.0 32.0 28.0 1.0 1.0 164913.38423 247.0 1.0
718729.81999969 4295406.69999981 117.81199646 255.0 0.0 0.0 32.0 28.0 1.0 1.0 164913.384237 394.0 1.0
718729.79000092 4295406.63000011 117.96199799 255.0 0.0 0.0 32.0 29.0 1.0 1.0 164913.384249 250.0 1.0
718729.75 4295406.53999996 118.1190033 255.0 0.0 0.0 32.0 30.0 1.0 1.0 164913.384256 226.0 1.0
718729.72999954 4295406.46999979 118.26899719 255.0 0.0 0.0 32.0 30.0 1.0 1.0 164913.384268 274.0 1.0
718729.70000076 4295406.38000011 118.43000031 255.0 0.0 0.0 32.0 31.0 1.0 1.0 164913.384279 272.0 1.0
718729.64999962 4295406.28999996 118.60299683 255.0 0.0 0.0 32.0 31.0 1.0 1.0 164913.384287 447.0 1.0
718729.62000084 4295406.19999981 118.76999664 255.0 0.0 0.0 32.0 32.0 1.0 1.0 164913.384298 283.0 1.0
718729.64999962 4295406.1500001 118.89700317 255.0 0.0 0.0 32.0 32.0 1.0 1.0 164913.38431 216.0 1.0
718729.39999962 4295405.92000008 119.22699738 255.0 0.0 0.0 32.0 33.0 1.0 1.0 164913.384317 122.0 1.0
718729.40999985 4295405.8499999 119.375 255.0 0.0 0.0 32.0 33.0 1.0 1.0 164913.384329 124.0 1.0
718729.43000031 4295405.78999996 119.51799774 255.0 0.0 0.0 32.0 34.0 1.0 1.0 164913.384336 125.0 1.0
718729.45000076 4295405.73000002 119.66799927 255.0 0.0 0.0 32.0 34.0 1.0 1.0 164913.384348 444.0 1.0
718729.42000008 4295405.63000011 119.85199738 255.0 0.0 0.0 32.0 35.0 1.0 1.0 164913.384359 194.0 1.0
718729.37000084 4295405.51999998 120.06300354 255.0 0.0 0.0 32.0 35.0 1.0 1.0 164913.384367 272.0 1.0
718729.31999969 4295405.4000001 120.27200317 255.0 0.0 0.0 32.0 36.0 1.0 1.0 164913.384378 299.0 1.0
718730.45999908 4295408.81000042 113.70300293 255.0 0.0 0.0 32.0 8.0 1.0 1.0 164913.390539 673.0 1.0
718730.45999908 4295408.56000042 114.21900177 255.0 0.0 0.0 32.0 12.0 1.0 1.0 164913.390596 148.0 1.0
718730.46999931 4295408.52999973 114.30400085 255.0 0.0 0.0 32.0 12.0 1.0 1.0 164913.390608 374.0 1.0
718730.45000076 4295408.47999954 114.39800262 255.0 0.0 0.0 32.0 13.0 1.0 1.0 164913.390619 319.0 1.0
718730.30999947 4295408.10999966 115.08899689 255.0 0.0 0.0 32.0 16.0 1.0 1.0 164913.390688 753.0 1.0
718730.30999947 4295408.06000042 115.18399811 255.0 0.0 0.0 32.0 17.0 1.0 1.0 164913.390699 368.0 1.0
718730.29000092 4295408.01000023 115.28800201 255.0 0.0 0.0 32.0 18.0 1.0 1.0 164913.390707 350.0 1.0
718730.46999931 4295408.03999996 115.31999969 255.0 0.0 0.0 32.0 18.0 1.0 1.0 164913.390718 50.0 1.0
718730.25 4295407.9000001 115.5019989 255.0 0.0 0.0 32.0 19.0 1.0 1.0 164913.39073 136.0 1.0
718730.20000076 4295407.78000021 115.72299957 255.0 0.0 0.0 32.0 20.0 1.0 1.0 164913.390749 418.0 1.0
718730.18000031 4295407.71999979 115.83499908 255.0 0.0 0.0 32.0 20.0 1.0 1.0 164913.390757 166.0 1.0
718730.14999962 4295407.65999985 115.9509964 255.0 0.0 0.0 32.0 21.0 1.0 1.0 164913.390768 327.0 1.0
718730.12999916 4295407.59000015 116.07099915 255.0 0.0 0.0 32.0 21.0 1.0 1.0 164913.390779 187.0 1.0
718730.14999962 4295407.55999994 116.16600037 255.0 0.0 0.0 32.0 22.0 1.0 1.0 164913.390787 130.0 1.0
718730.09000015 4295407.46999979 116.3030014 255.0 0.0 0.0 32.0 22.0 1.0 1.0 164913.390798 235.0 1.0
718730.05999947 4295407.40999985 116.4280014 255.0 0.0 0.0 32.0 23.0 1.0 1.0 164913.390806 276.0 1.0
718730.04999924 4295407.3499999 116.54499817 255.0 0.0 0.0 32.0 23.0 1.0 1.0 164913.390818 248.0 1.0
718730.02000046 4295407.28000021 116.67299652 255.0 0.0 0.0 32.0 24.0 1.0 1.0 164913.390829 397.0 1.0
718729.98999977 4295407.21000004 116.80500031 255.0 0.0 0.0 32.0 25.0 1.0 1.0 164913.390837 389.0 1.0
718729.97999954 4295407.1500001 116.9260025 255.0 0.0 0.0 32.0 25.0 1.0 1.0 164913.390848 394.0 1.0
718729.94000053 4295407.07000017 117.06500244 255.0 0.0 0.0 32.0 26.0 1.0 1.0 164913.39086 508.0 1.0
718729.93000031 4295407.01000023 117.19499969 255.0 0.0 0.0 32.0 26.0 1.0 1.0 164913.390867 363.0 1.0
718729.89999962 4295406.92999983 117.33100128 255.0 0.0 0.0 32.0 27.0 1.0 1.0 164913.390879 373.0 1.0
718729.87999916 4295406.86999989 117.46700287 255.0 0.0 0.0 32.0 27.0 1.0 1.0 164913.390886 220.0 1.0
718729.85000038 4295406.78999996 117.61299896 255.0 0.0 0.0 32.0 28.0 1.0 1.0 164913.390898 343.0 1.0
718729.81999969 4295406.71000004 117.76200104 255.0 0.0 0.0 32.0 28.0 1.0 1.0 164913.390909 312.0 1.0
718729.78000069 4295406.63000011 117.91300201 255.0 0.0 0.0 32.0 29.0 1.0 1.0 164913.390917 344.0 1.0
718729.76000023 4295406.55000019 118.06099701 255.0 0.0 0.0 32.0 29.0 1.0 1.0 164913.390928 364.0 1.0
718729.73999977 4295406.46999979 118.21299744 255.0 0.0 0.0 32.0 30.0 1.0 1.0 164913.39094 260.0 1.0
718729.69000053 4295406.38000011 118.38300323 255.0 0.0 0.0 32.0 30.0 1.0 1.0 164913.390947 290.0 1.0
718729.65999985 4295406.30000019 118.54000092 255.0 0.0 0.0 32.0 31.0 1.0 1.0 164913.390959 314.0 1.0
718729.62999916 4295406.21000004 118.70999908 255.0 0.0 0.0 32.0 32.0 1.0 1.0 164913.390966 214.0 1.0
